0.037409 0.058952 0.009848
0.046058 0.077187 -0.005719
0.037172 -0.045824 -0.001738
-0.039718 0.021718 0.013819
0.002575 -0.064841 0.001875
0.034825 0.072033 0.008882
0.021330 0.035514 -0.013534
-0.038533 0.015773 0.010303
-0.001230 -0.057939 -0.013469
-0.052748 0.041904 -0.002534
0.018281 -0.029213 -0.015466
0.015800 0.032145 -0.010644
0.014545 -0.082504 -0.006791
0.004930 -0.068899 0.007857
0.028558 0.014032 -0.006704
0.048482 0.073191 -0.003689
0.042198 -0.025277 -0.000445
-0.031161 0.027997 -0.006583
0.001836 -0.058057 0.008865
-0.016674 0.015502 0.014206
-0.008072 0.005755 -0.012041
-0.045000 0.023773 0.011038
0.040777 0.046272 0.000891
-0.028968 -0.046201 -0.008814
-0.001051 0.005263 -0.006011
0.041610 -0.031227 -0.000669
0.011450 0.018475 0.011174
-0.006935 -0.050878 -0.007507
-0.022509 -0.025092 -0.009238
-0.012167 0.005925 0.013144
0.018715 -0.001183 0.010044
-0.032792 -0.041535 -0.000104
0.036147 0.049151 -0.008928
-0.012262 -0.040742 -0.013489
-0.029578 0.019715 -0.009178
-0.052719 0.057978 0.016980
-0.046166 0.045207 -0.006416
0.040998 -0.013650 -0.005849
-0.011616 -0.010014 -0.016960
-0.009962 -0.016240 -0.012594
-0.051919 0.046103 0.018538
0.024753 -0.068845 0.005325
-0.012557 -0.034913 -0.011266
0.033859 -0.007179 -0.012702
-0.019354 0.008256 -0.010601
0.008904 -0.003161 -0.018994
-0.033319 -0.019717 -0.006319
-0.014347 -0.037781 0.011524
0.026602 0.026211 0.009481
-0.009228 -0.068163 -0.007352
0.042781 0.053778 -0.006656
-0.057539 0.061767 -0.002721
-0.019242 -0.034808 0.012272
0.003920 -0.079653 -0.011845
-0.058055 0.049884 -0.001414
-0.024319 0.011418 -0.000554
-0.025918 -0.023370 0.006208
-0.038752 0.038341 -0.007448
0.036935 -0.045634 -0.000189
0.014101 -0.008113 0.014297
-0.040144 0.023644 -0.006389
0.013606 0.016967 0.009185
-0.041749 0.030104 0.014046
-0.002199 -0.016692 0.012868
-0.015828 -0.014707 -0.011913
0.011508 -0.071829 0.008504
0.015057 -0.053669 -0.016842
0.033556 0.063324 -0.011571
0.037672 0.084851 -0.007381
-0.049453 0.040224 0.015396
0.039124 -0.013301 -0.010438
-0.020468 -0.005020 -0.008286
-0.026424 -0.039534 -0.008869
-0.008749 0.001868 0.017689
-0.011898 -0.041420 -0.013542
-0.034785 0.035884 -0.007441
-0.035857 0.029950 0.016585
0.029648 0.067893 -0.012967
-0.032330 -0.018549 -0.007119
-0.030313 -0.043841 -0.008468
0.026415 -0.037407 0.007256
0.026677 0.050261 -0.011060
-0.010781 -0.008422 0.015810
-0.067798 0.051042 0.003836
0.018552 -0.079430 -0.000421
0.001600 -0.071165 0.008347
0.004805 0.005070 0.012223
-0.050119 0.046767 -0.005891
-0.010729 -0.002545 0.017197
0.030994 -0.016094 -0.016822
-0.027649 0.022070 -0.005148
0.030601 0.024527 0.005625
-0.020205 -0.039863 0.012169
-0.012286 -0.026894 0.011757
0.028482 0.010220 0.003617
-0.027881 -0.010565 -0.009343
0.036923 -0.019147 -0.015978
-0.039650 0.023310 0.014566
0.000481 -0.072759 0.008431
-0.047077 0.024556 0.008652
-0.030041 -0.002379 -0.005864
0.042221 -0.018938 -0.005515
-0.064146 0.046698 0.002383
0.022153 -0.014709 -0.015830
0.020573 -0.051678 0.007479
-0.009998 0.004613 0.014203
0.005553 -0.002625 -0.010175
0.005628 -0.013749 -0.015498
0.023567 -0.051091 0.004653
-0.036744 0.025766 -0.007973
0.017835 -0.030476 -0.015577
0.024646 -0.005080 0.009028
-0.015288 -0.018095 -0.012203
-0.063885 0.048001 0.013898
0.004499 0.007997 -0.017134
0.013542 0.000187 0.015713
-0.049289 0.050523 0.016379
0.016216 0.017793 0.011300
-0.034823 -0.035476 -0.000213
0.014137 0.024714 0.009833
0.029217 -0.028498 0.007272
0.005199 -0.061531 0.007012
-0.029215 0.004964 -0.004216
-0.022737 -0.044157 -0.012281
-0.067586 0.051034 0.011292
0.022328 -0.017562 -0.013726
0.010469 -0.070131 -0.017847
-0.064419 0.045613 0.007475
0.017128 -0.005709 -0.014751
0.029321 0.021793 0.005984
0.023071 0.033094 0.000107
0.045862 0.077653 -0.005844
0.017808 0.003277 0.010307
0.014039 -0.048583 -0.015937
-0.003395 -0.016082 0.014246
-0.019318 -0.013696 -0.011564
-0.002037 0.001026 -0.018015
0.013875 -0.051542 -0.016560
0.002808 0.008109 -0.009832
0.011360 -0.016849 -0.012738
0.002276 -0.078549 -0.004063
-0.003260 -0.010697 0.016191
-0.029286 0.019712 0.015595
0.011363 0.003585 0.016111
0.010921 -0.015593 -0.014368
0.020430 0.013372 0.010432
0.026804 0.047327 -0.013577
0.036321 0.054927 -0.010748
-0.023237 -0.053898 -0.008245
0.034731 0.060529 -0.011638
0.023180 0.046347 0.010385
0.017138 0.038431 -0.010506
-0.054803 0.042100 -0.001039
-0.056661 0.060704 -0.002996
0.008495 -0.014534 -0.011808
0.035960 -0.010481 0.004789
0.018985 -0.046372 0.005790
-0.028820 0.003487 -0.007698
-0.016950 0.005879 0.013782
0.014222 -0.011161 -0.012121
0.007718 0.015409 -0.010661
0.021068 -0.027038 0.008142
0.036282 0.053524 -0.012546
0.002478 0.004277 0.017029
-0.060111 0.051398 0.008313
-0.019558 0.014237 -0.008196
-0.026080 -0.049771 -0.010542
-0.044093 0.043985 -0.004448
0.004064 -0.002722 -0.018256
0.004724 0.000405 -0.004142
0.042579 0.077825 0.005927
0.018203 0.027061 0.005372
-0.034142 0.023241 -0.006269
0.011641 0.017202 0.011782
0.008559 -0.080990 -0.018705
-0.055673 0.043088 0.016649
-0.018940 0.009704 -0.010596
-0.043022 0.045806 0.017818
0.000420 0.000345 -0.018217
0.034415 0.062479 0.008186
-0.006541 -0.068934 0.006538
-0.004162 -0.070157 -0.015657
-0.007937 0.000329 0.016900
0.041072 -0.035839 -0.007112
-0.024895 -0.053110 -0.001107
0.019515 -0.073693 0.006767
0.015481 -0.045078 -0.014375
0.029136 0.057474 0.008665
-0.030038 0.025959 -0.008969
-0.041278 0.039583 0.014282
0.028587 0.056042 0.011051
0.025804 -0.066995 -0.000249
0.017006 -0.067059 -0.017642
-0.034891 -0.025203 -0.003946
0.027240 0.036232 -0.013357
0.017492 0.029653 -0.010892
0.014931 -0.012198 0.007738
0.044749 0.075444 -0.008155
0.028679 -0.058303 -0.012005
0.018604 -0.038021 -0.014256
-0.026291 -0.032823 0.013045
-0.063542 0.050638 0.016340
-0.059756 0.055816 -0.004394
-0.013365 0.004104 -0.009016
0.017975 -0.013956 0.009354
-0.030812 0.018226 0.010197
0.040475 0.079587 0.006609
-0.053466 0.031520 0.005829
-0.046948 0.049187 -0.004072
0.010720 0.000427 0.016265
-0.008538 0.001238 0.017872
0.005111 -0.070187 0.008022
0.025946 -0.016713 0.008345
0.019504 -0.078064 0.002873
-0.031278 -0.005665 -0.004814
0.002802 -0.012811 -0.012754
0.028113 -0.032794 0.007264
-0.018609 -0.031830 -0.010373
-0.012986 0.011332 0.013491
-0.067083 0.062517 0.004057
-0.007222 -0.005309 0.015199
0.034336 0.030863 0.002915
0.036548 -0.046206 -0.007414
-0.018967 0.015376 -0.008202
-0.017015 -0.011987 -0.011773
-0.024655 -0.013264 -0.008263
-0.059038 0.049810 -0.003979
0.017594 0.008753 -0.000089
0.039632 0.074158 0.010439
-0.042757 0.027461 0.012552
0.042533 -0.021669 -0.005711
0.047249 0.070495 -0.009180
0.048139 0.072194 -0.003008
-0.034219 -0.025511 0.007153
0.031958 0.024436 0.003249
-0.000762 -0.067127 0.000633
0.018267 -0.079866 0.007060
-0.019719 -0.041296 0.012010
-0.000150 0.004794 0.015799
0.024953 -0.014060 0.008555
0.007020 -0.014127 0.011545
0.030002 0.063342 -0.013469
-0.010428 0.004511 0.014048
-0.009280 -0.067926 -0.011730
0.021064 -0.056383 0.007180
0.018110 0.022855 0.001359
-0.016255 -0.036983 0.011822
-0.009330 -0.008519 0.017452
0.021330 0.048353 -0.010770
0.014828 -0.058912 -0.014768
0.019916 0.010827 -0.011699
-0.031402 -0.027160 -0.009432
0.020721 -0.025617 -0.013875
-0.022588 -0.052315 -0.012063
0.028999 -0.029052 -0.017419
-0.001615 -0.053733 -0.015040
0.002570 -0.064228 0.008556
0.028292 -0.061444 -0.005619
0.037362 0.039134 0.003217
-0.059524 0.057827 -0.004510
0.004922 -0.009921 -0.011117
-0.047383 0.053343 0.017682
0.034644 0.079828 -0.012493
-0.018727 0.014291 -0.008306
0.024953 0.002155 0.008853
-0.034310 -0.023458 0.008012
-0.009244 -0.043077 -0.013016
0.025724 0.000556 0.008735
0.001246 -0.068224 0.000626
0.026176 -0.008800 0.002518
0.013675 -0.015995 -0.012287
-0.042238 0.031126 -0.006954
-0.025954 0.027907 0.014897
-0.066058 0.062615 -0.001281
-0.046170 0.037159 0.017299
-0.059967 0.044014 0.014360
-0.019837 0.020659 0.012884
-0.022939 0.015837 0.012406
0.040595 0.049617 -0.007704
0.015447 -0.006280 0.012588
-0.046427 0.028035 0.013152
-0.060225 0.049616 0.017525
0.038492 -0.027632 0.005615
-0.057395 0.042385 0.000899
0.007589 0.005814 -0.017338
-0.000987 -0.055979 0.006913
-0.009655 -0.066879 -0.013892
-0.047562 0.046499 -0.006221
-0.012350 -0.014492 -0.012245
-0.012167 -0.012071 0.012639
-0.058555 0.062264 0.017686
-0.019403 -0.024271 0.012774
0.031075 0.050957 0.010590
-0.045006 0.046821 0.015659
-0.044017 0.031305 -0.003998
0.022662 0.031914 0.010998
0.049325 0.076021 -0.001396
0.032983 0.063885 -0.013707
0.006756 -0.004632 -0.018388
0.039525 0.068598 0.010173
-0.011688 -0.029349 -0.011636
0.025323 0.050214 0.009093
0.034181 0.033482 0.005222
-0.022097 -0.040061 -0.012177
0.033538 -0.026083 -0.017794
0.007819 -0.001717 0.016029
0.028280 -0.046729 -0.018108
-0.005382 -0.056273 -0.012413
0.032157 0.023222 -0.001287
0.008968 -0.014795 0.010030
-0.019070 -0.043474 -0.001850
-0.050620 0.038651 0.009786
0.028616 0.025529 -0.010793
0.018207 -0.078877 -0.008345
0.001218 0.000321 -0.018174
0.001752 -0.011078 0.016195
0.008359 0.000212 0.016476
-0.015071 -0.014904 -0.009987
-0.044460 0.035399 0.014944
0.018755 0.032739 -0.013404
-0.064602 0.053923 0.014343
0.032058 0.004099 -0.002513
-0.006505 -0.068082 -0.003206
-0.069189 0.053741 0.004749
0.019953 0.045489 -0.010798
0.026786 -0.061701 -0.011946
-0.009950 0.006632 -0.015740
0.015947 -0.056897 0.005454
-0.065761 0.048035 0.010841
0.034683 -0.035406 0.006176
-0.012930 -0.007822 -0.016754
0.013947 -0.052105 -0.016604
0.011382 -0.082066 -0.004549
-0.048741 0.027647 0.010472
0.039433 -0.040989 -0.005245
0.003846 -0.079375 -0.016674
-0.050747 0.053933 0.018986
0.025545 0.030776 0.010478
-0.054848 0.051458 0.019310
0.009073 0.019019 -0.012822
0.039871 0.055483 -0.010929
0.026848 -0.017939 0.008107
0.032709 0.052811 0.003333
0.008869 0.009493 0.009486
-0.012033 -0.004814 0.010413
-0.029222 0.031876 0.015390
-0.031583 -0.042995 -0.003706
0.020443 0.016989 -0.011265
0.007718 -0.081872 -0.008736
0.003723 -0.064402 -0.014269
0.027504 -0.040876 -0.015142
0.026962 -0.024876 -0.009314
0.026230 -0.000717 -0.014428
-0.017783 -0.014908 -0.011720
-0.023049 -0.002028 0.006619
-0.015897 -0.044400 0.009153
-0.026547 -0.033401 -0.011295
-0.010242 0.005804 0.010565
-0.028641 0.009613 -0.008759
-0.036002 -0.028044 0.001934
-0.033556 0.034693 -0.006514
0.023901 -0.040393 0.007503
-0.012827 -0.064414 -0.001627
0.029484 0.037801 0.009976
0.011511 -0.061856 -0.016641
-0.026236 -0.041399 -0.011682
-0.043870 0.021995 -0.002206
-0.017732 -0.007043 -0.011387
0.005900 0.010993 -0.010782
0.039510 -0.031285 -0.013585
0.002910 0.008018 -0.012039
0.019432 -0.074368 -0.015321
0.001188 0.004438 -0.005594
-0.032250 -0.040471 0.005977
-0.066117 0.064148 -0.000677
0.026418 0.016345 -0.010190
0.042091 0.048812 0.000611
-0.027385 0.011647 -0.009488
0.015142 -0.010208 -0.014722
0.018210 -0.035257 -0.015420
-0.069899 0.055523 0.006388
0.007942 -0.077732 0.007908
-0.020896 -0.041199 -0.010102
0.026997 0.015654 -0.009371
0.028284 -0.030081 -0.014175
-0.024285 -0.053672 -0.003031
-0.024941 -0.018248 -0.010964
0.028734 -0.002493 -0.014135
-0.048743 0.027060 0.010010
-0.040956 0.019525 -0.003579
0.031308 0.029972 0.006946
0.032902 0.044563 0.002046
0.032999 0.033019 0.006425
0.035117 0.032770 -0.004984
0.039537 -0.020686 -0.013583
-0.034526 -0.032005 -0.005329
0.005103 -0.000513 -0.007386
-0.001415 -0.056219 -0.015594
-0.018977 -0.007782 -0.011320
-0.012203 -0.027621 -0.012342
0.024040 0.008002 -0.010101
-0.000683 -0.073820 -0.016266
0.003120 -0.005028 0.015314
0.046398 0.062916 0.002771
0.026506 0.008463 0.006856
0.026849 0.033423 -0.011084
-0.036987 0.014153 0.010528
0.025781 0.016558 0.008011
0.038435 0.082096 0.008189
0.016083 0.023595 -0.011230
-0.037018 0.036185 0.016827
0.034015 -0.051479 0.002181
-0.044083 0.024668 -0.003850
-0.002772 0.004420 -0.017175
-0.063928 0.071222 0.009963
-0.030152 -0.004872 -0.006228
0.014850 -0.007769 0.013085
-0.038576 0.013643 0.007395
0.023307 -0.058565 0.006753
0.005968 0.001942 0.006398
0.015080 -0.080502 -0.018703
-0.065809 0.069799 0.011314
-0.007951 -0.016242 0.012074
-0.010775 -0.014298 -0.013226
0.031959 -0.055131 -0.002320
-0.027453 0.028658 0.015745
-0.057080 0.044730 -0.000910
-0.029521 -0.001522 -0.006007
-0.037624 0.027336 -0.007823
0.042605 -0.029084 -0.004624
-0.025197 -0.000282 0.010413
0.017369 0.019446 -0.000833
-0.002134 -0.064698 -0.001460
-0.069023 0.061143 0.013217
-0.030913 0.025322 0.013746
0.029434 0.043468 -0.013445
-0.008261 -0.040566 0.009786
-0.022416 -0.040893 -0.012194
0.031078 0.037193 0.006064
0.015334 -0.059020 -0.017148
0.030221 -0.056605 -0.009527
-0.023699 -0.008786 0.013335
-0.062807 0.058574 -0.003695
0.020161 -0.071993 -0.009420
0.031625 0.040940 -0.010165
-0.058026 0.039101 0.011470
0.040329 0.054414 0.006918
-0.045713 0.051072 0.016614
-0.018542 0.007890 -0.008265
0.049015 0.072952 -0.001501
0.040589 0.087344 -0.000955
0.040226 -0.025125 -0.013924
-0.036983 0.038643 -0.006757
0.019010 0.013097 0.010640
-0.033701 0.020163 -0.004692
0.020317 0.025217 0.005639
-0.049890 0.051094 -0.005867
0.027358 0.043666 -0.011430
-0.028432 0.002032 0.011085
-0.028700 0.019571 0.007755
-0.031357 0.006412 -0.005673
-0.027698 -0.025330 -0.010868
-0.040767 0.034783 -0.004997
0.032414 -0.052385 -0.009980
-0.036044 0.039611 0.016334
0.022736 -0.063969 -0.001154
-0.033440 -0.014805 -0.004467
0.035084 0.035532 0.005016
0.020871 -0.023622 0.008581
0.026960 -0.041470 0.004596
0.039456 -0.039867 0.003117
0.045729 0.072777 -0.005575
0.018194 0.033285 0.009287
0.007161 -0.074807 0.007787
0.044483 0.064626 -0.005833
-0.003459 0.006386 -0.010548
-0.004484 -0.051543 0.005997
-0.010819 -0.019078 0.011976
-0.003143 -0.013765 -0.017298
0.019558 0.015662 0.008453
0.019348 0.018859 0.010972
-0.016053 0.008100 0.011594
0.020366 0.039019 -0.010720
-0.044149 0.020037 0.005445
0.023896 -0.037327 0.007604
0.030412 0.069851 -0.011923
0.006308 -0.001895 -0.018303
0.018663 0.016318 -0.013868
0.023468 -0.034927 -0.016957
0.019193 -0.025583 0.007606
-0.009486 -0.014188 -0.014644
0.032699 0.066626 -0.011204
0.013863 -0.016517 0.009597
-0.009532 -0.048428 -0.012092
0.020931 0.045114 -0.013044
-0.011861 0.007578 0.013365
0.002582 0.000323 -0.018011
0.020524 0.025314 0.005228
0.017599 0.016790 0.011105
0.019117 -0.045857 -0.016966
0.026378 -0.065555 -0.001248
0.031498 -0.045749 -0.018216
-0.008772 -0.022027 0.009233
-0.022447 0.014986 0.014837
-0.010289 -0.029090 0.011477
-0.004092 0.006233 -0.010156
-0.009928 -0.016442 0.012023
0.032768 0.068146 0.010189
-0.059497 0.046744 0.000202
-0.010947 -0.002873 0.016999
0.030685 0.002814 -0.009080
-0.011598 -0.035540 -0.011949
0.007705 -0.075247 0.007871
0.036135 -0.036948 0.005865
-0.004312 -0.050607 0.007496
0.013693 -0.065687 -0.014614
0.016147 0.024064 -0.013455
0.048963 0.073534 -0.005595
-0.032886 0.025200 0.016167
0.022329 -0.063871 -0.001288
-0.032171 -0.012384 0.008053
0.012120 -0.082272 -0.007644
0.022619 -0.053926 -0.002443
0.029545 0.007758 -0.006668
-0.045894 0.031325 -0.002945
0.017168 0.029049 0.011733
-0.022427 -0.017067 -0.008961
-0.021117 -0.017721 -0.009243
-0.040299 0.023681 0.014482
-0.024511 0.016747 0.000652
0.018305 0.019501 0.011118
-0.012865 0.002042 0.013393
0.025476 -0.004824 0.008894
0.029132 0.047822 0.008360
-0.011369 -0.004950 0.016254
0.041837 -0.029619 -0.000261
0.004172 -0.080233 -0.006839
-0.056617 0.041825 0.000818
0.037899 -0.022766 0.005775
-0.008745 -0.065612 -0.014823
0.001404 -0.001841 0.015766
0.010767 0.019441 -0.010540
0.017759 -0.076323 -0.017352
-0.026574 0.020241 0.015381
-0.027732 -0.048669 -0.004849
-0.013134 -0.046335 0.011074
-0.045714 0.034760 0.016801
0.003509 0.008102 -0.015128
0.024368 0.009429 -0.011942
0.033666 0.068153 -0.010171
0.017125 -0.081450 -0.002753
-0.033823 0.036984 0.016034
-0.012804 -0.053158 0.008020
-0.002702 -0.058327 0.009476
0.001636 -0.066892 -0.015944
0.040835 0.078828 0.009644
-0.023548 -0.017098 -0.011078
-0.023512 0.022617 0.015200
0.005301 -0.013902 0.012099
0.039650 0.055741 -0.003102
0.001471 0.004159 -0.006332
0.027769 -0.026843 -0.017178
-0.020888 0.003003 0.011901
-0.034449 0.022526 0.013532
0.034629 0.070957 -0.011477
0.043695 0.081299 -0.009543
-0.054160 0.036308 0.013267
-0.008153 0.005673 0.010936
0.013462 0.031489 -0.011802
-0.010840 -0.066314 -0.011488
0.034655 0.049025 -0.012635
0.001316 -0.058256 -0.014514
0.036093 0.059471 -0.013539
0.000745 -0.076583 -0.004941
-0.031538 -0.037095 0.009583
0.038942 0.086621 0.000448
-0.013801 -0.000523 0.010946
0.000768 0.006078 -0.013256
0.019365 0.026842 -0.007327
0.015375 -0.009857 -0.014756
-0.027976 0.021843 0.015548
-0.052009 0.046853 0.018617
0.038730 0.067129 0.010223
0.038852 -0.012829 -0.010893
0.033122 0.072876 -0.013553
-0.032648 0.023575 -0.006502
0.018940 -0.080758 0.002507
0.003303 0.002702 -0.009827
0.026022 0.014410 0.007547
-0.033617 -0.016551 0.006898
-0.036265 -0.025118 -0.000177
-0.055874 0.052158 0.015482
-0.032213 0.011583 0.012398
-0.034682 0.026103 0.016229
0.036161 0.070468 0.008510
-0.054974 0.044121 -0.002102
-0.032763 -0.036019 0.006840
-0.013292 -0.035357 0.009218
0.040775 0.045555 -0.002089
0.028263 0.057807 0.009945
0.026422 0.039578 -0.013672
0.018927 0.021750 0.011215
0.024823 -0.053948 -0.018098
0.038075 -0.037255 -0.014520
0.037607 0.042086 -0.007671
-0.018996 0.019729 0.013007
0.012213 -0.079221 0.007825
-0.008674 -0.039723 0.010754
-0.001834 -0.051908 0.007215
-0.007723 -0.001786 -0.017335
0.000562 -0.056273 -0.014714
0.001655 -0.058859 0.008876
0.006723 -0.007473 0.015027
0.019171 0.026674 0.004839
0.015898 -0.010561 0.009994
0.019557 0.023299 -0.013772
0.037945 0.076149 0.010849
0.017204 -0.068028 0.007046
-0.045198 0.042181 -0.003544
0.039958 -0.039883 -0.003279
-0.004872 -0.068752 -0.015524
-0.056479 0.062061 0.017428
0.003974 0.004838 -0.010395
-0.006686 -0.068530 0.007481
-0.030464 0.030493 0.013606
0.009151 0.020575 -0.012525
-0.016604 -0.009180 -0.000041
0.040957 0.049017 -0.006511
0.008720 0.019855 -0.012375
-0.028434 0.027924 -0.006699
0.037425 0.061619 -0.013482
-0.020634 0.017794 -0.010195
0.029852 -0.019242 0.007613
0.017437 0.013499 -0.011760
0.024538 0.011694 -0.008860
0.023387 -0.044372 -0.014989
0.015492 -0.062362 0.007772
-0.055034 0.040214 0.015309
-0.051867 0.057660 0.017102
0.027821 -0.053740 -0.018015
-0.027616 -0.006481 -0.005624
0.015028 0.017197 -0.013527
-0.030509 -0.026728 0.011789
0.006833 0.009665 -0.013284
-0.012634 -0.046126 -0.001574
0.022690 -0.071220 -0.001257
0.025828 0.037748 -0.011443
0.029288 -0.001044 0.006950
0.028388 -0.023169 0.007628
-0.003352 -0.052638 0.009722
-0.003931 -0.004353 -0.017837
-0.030458 0.002335 -0.005572
-0.017130 -0.060327 -0.001630
-0.006036 0.001795 0.015524
-0.011800 -0.012884 -0.013630
0.043229 0.069516 0.008832
-0.009880 -0.066757 0.001990
0.011577 -0.082425 -0.011831
-0.058756 0.064479 0.019489
-0.006825 0.005228 0.011929
0.021287 -0.076673 0.005369
0.042554 -0.023465 -0.006946
0.021140 -0.075774 0.006099
0.010127 -0.000352 -0.018400
0.010289 -0.068940 -0.017736
0.037811 0.044686 -0.008864
-0.030493 -0.004085 -0.005525
-0.062040 0.050923 0.017413
-0.048217 0.049933 -0.003754
-0.002229 -0.013668 0.013293
0.039108 -0.030694 -0.015061
0.045055 0.073882 0.008021
0.005746 0.006576 0.013014
-0.005536 -0.050952 0.006873
0.036481 0.051976 -0.012170
0.030398 0.038310 0.009747
0.026837 -0.061812 0.006076
-0.012637 -0.006227 -0.009682
-0.021116 -0.031830 -0.012006
-0.010950 0.008649 0.012796
0.024857 -0.064824 -0.012677
-0.021143 0.022329 0.013311
-0.070361 0.057799 0.008449
0.038249 -0.043450 0.001015
0.038264 -0.006406 -0.002687
0.024458 0.055830 -0.010933
0.036335 0.056380 0.007302
0.024241 0.055424 -0.012806
0.020488 0.011501 -0.011598
-0.020560 -0.052913 0.010922
-0.004966 -0.006718 0.001630
-0.034078 -0.021554 -0.005938
0.020794 -0.058875 -0.006589
0.011937 0.003923 0.015353
0.017026 -0.059568 0.007619
-0.047443 0.039119 -0.006229
0.029864 0.068579 -0.011870
0.012137 -0.006601 0.008231
0.032851 -0.049415 -0.013210
-0.035336 -0.032757 -0.001719
0.000196 0.007176 -0.009475
0.001286 -0.012316 -0.011491
-0.027714 -0.022689 -0.008154
-0.001065 0.004663 0.014456
0.023621 -0.023295 0.008274
-0.015373 -0.009661 -0.011941
0.001573 -0.058470 -0.014938
-0.041010 0.032523 0.004791
-0.033189 -0.019414 -0.006295
0.024345 -0.063484 -0.004103
-0.055299 0.034183 0.003082
-0.033673 0.025700 0.000683
-0.007215 0.002003 0.017632
-0.017830 0.015974 0.014340
0.021258 0.028651 -0.001179
0.036972 0.053648 -0.005768
0.015372 0.015422 0.000100
0.037594 0.084317 -0.007612
-0.061479 0.052655 0.018445
0.035794 0.033790 0.001824
0.026625 0.018959 -0.010413
0.022513 -0.015523 0.008812
0.045065 0.073614 -0.011415
0.015546 -0.074197 -0.018162
0.036406 -0.029472 -0.017715
-0.020109 0.009013 -0.010536
-0.046920 0.026515 0.011556
-0.048140 0.045954 0.015910
0.032023 0.004044 -0.004090
0.024263 0.000947 0.009211
0.041505 0.050304 -0.006551
-0.049204 0.037042 0.007103
0.010005 0.010177 -0.010895
-0.050983 0.044084 0.016029
0.038489 0.081262 0.009065
0.022352 -0.068873 -0.010970
-0.030541 -0.011678 -0.007467
-0.002149 -0.000914 0.016409
-0.034313 0.009828 0.008949
0.017020 0.037147 -0.010438
-0.029053 -0.040864 0.011064
0.015795 -0.047421 -0.016648
0.014783 -0.008817 0.012327
0.042789 0.082327 -0.005184
0.009587 -0.065523 -0.011222
-0.033530 0.023757 0.000031
0.036291 0.063833 -0.013812
0.036976 0.084196 -0.009622
0.031698 0.022963 -0.003665
0.001129 0.005529 0.011020
-0.068708 0.053124 0.010944
-0.016022 -0.035704 0.009473
-0.009897 -0.047603 0.010685
0.025285 -0.020054 -0.010925
-0.014848 -0.061262 -0.012917
0.007952 -0.003395 -0.018271
0.006237 -0.006793 0.014088
0.026977 0.053666 -0.010709
0.045644 0.083011 -0.003640
0.036559 0.069631 0.010669
-0.067355 0.066880 0.003023
-0.046296 0.046776 -0.006446
0.006201 -0.077736 0.008385
0.030282 0.069505 -0.012971
0.046357 0.077787 -0.008981
-0.038564 0.042965 0.015895
-0.016596 0.010684 -0.008490
0.013531 0.021111 0.011851
0.021459 -0.032124 -0.016606
-0.046934 0.032489 0.006555
-0.032934 0.012564 -0.006849
0.043083 0.084742 0.003525
-0.020059 -0.036756 0.012327
0.034138 0.036983 -0.009757
0.036544 0.050871 0.008817
0.013164 0.030266 -0.012581
-0.012299 -0.037669 -0.013189
-0.040182 0.040593 0.015000
0.030381 -0.011681 -0.016208
0.034997 0.072958 -0.013729
-0.016958 -0.009591 -0.002288
0.033228 0.031349 0.005660
0.016270 0.016160 0.003885
0.007087 0.002028 -0.017610
0.031634 0.058715 0.010827
-0.034501 0.034026 0.014166
0.004850 -0.012868 -0.018252
-0.001843 -0.055200 0.007039
0.002690 -0.071622 -0.016651
0.005939 0.004801 0.016881
-0.009923 -0.067002 0.000133
0.044847 0.057846 0.001451
0.031503 0.050552 0.010408
-0.021447 -0.047838 0.011998
-0.030646 0.016121 0.014885
-0.003212 -0.010388 -0.018024
-0.030258 -0.001931 0.007015
0.029284 0.014479 -0.004415
0.048195 0.074412 -0.007363
0.008205 0.006736 0.009297
0.023494 -0.047914 0.007194
0.023592 0.028832 -0.010258
-0.055272 0.042697 -0.001101
0.034399 0.044227 0.005827
0.011001 0.012176 -0.013189
-0.038729 0.030298 0.016727
0.025236 -0.010685 0.006412
-0.035995 -0.026605 0.003162
0.043058 0.076375 0.009071
0.030552 0.041092 0.009975
-0.056586 0.061636 0.017424
-0.004419 -0.046519 0.009452
0.007854 -0.012152 0.015867
0.024382 -0.029249 0.007923
-0.025816 -0.014211 -0.010593
-0.024611 -0.053095 0.002320
-0.062006 0.049182 0.016347
0.002745 -0.078853 0.003103
0.020467 -0.050496 -0.014954
-0.001956 -0.015761 0.011386
0.035580 -0.047218 -0.008901
0.006737 -0.014004 0.011210
0.004253 -0.007162 0.004152
0.025448 -0.011670 0.006369
-0.008790 -0.006420 0.017456
-0.009893 -0.012310 -0.016652
-0.049255 0.041366 0.017765
-0.027690 -0.045703 0.009723
0.029751 0.041639 0.001054
0.002279 -0.079130 -0.016502
-0.006313 -0.058966 -0.001364
-0.021060 -0.035731 -0.009718
-0.006560 -0.004480 -0.017491
0.024326 -0.037185 0.007581
0.007547 0.001696 -0.018342
-0.011750 -0.053642 0.010611
-0.037079 0.032721 -0.005612
-0.032851 0.003491 -0.000254
0.037843 -0.010236 -0.011396
-0.009661 -0.066935 0.002197
0.023567 -0.022418 0.006208
-0.015874 -0.048659 -0.009651
0.001614 -0.008570 -0.000543
-0.041870 0.042595 -0.006952
0.019142 0.024914 0.008813
0.030725 -0.013742 -0.016568
0.035619 -0.001845 -0.003371
-0.021416 -0.044154 0.009662
-0.020857 -0.002775 0.011490
0.035023 -0.023663 -0.017467
-0.020367 -0.041722 -0.012400
-0.014899 -0.042369 0.011480
-0.058054 0.043263 0.000881
-0.001946 -0.012054 -0.018276
0.031336 -0.050552 0.005929
0.023290 0.042588 0.011284
-0.042067 0.042843 -0.004668
0.042364 0.077702 -0.009671
-0.005864 -0.006216 0.016975
0.021860 -0.040666 -0.014676
0.026107 0.045922 -0.011280
-0.031024 0.025791 0.013737
0.035402 -0.007912 0.003585
0.040581 -0.038246 -0.004391
0.005016 0.000492 0.015887
-0.019424 -0.043767 0.001583
0.001412 -0.077305 -0.002817
-0.022674 0.015998 0.012402
0.042459 0.061329 -0.003862
-0.049948 0.050895 -0.005847
-0.010485 -0.066974 -0.004395
0.014859 -0.079929 -0.018912
0.035714 -0.023189 0.006579
0.002435 0.005834 0.013701
0.007128 -0.065129 -0.015104
0.036856 0.062931 0.007976
-0.017426 -0.009736 0.013162
0.039822 0.059444 -0.012110
-0.020192 0.019283 -0.009248
0.045709 0.077276 0.000790
-0.008278 -0.023302 0.011220
-0.016061 -0.040888 -0.000213
-0.034246 0.008975 0.008021
-0.010220 -0.066709 0.000069
-0.063184 0.064941 0.018069
-0.010120 -0.044696 -0.013995
-0.025238 0.002728 0.013235
0.014528 -0.075291 -0.018444
0.021609 -0.069008 0.006574
-0.019706 -0.035481 0.012277
0.024224 0.004716 0.009022
-0.067037 0.063474 0.009592
0.017564 0.029207 -0.010779
0.026754 0.047105 0.010963
-0.014751 -0.004696 0.013059
0.005628 -0.005163 -0.000239
0.048494 0.069136 -0.006072
0.034530 0.040922 -0.006049
-0.035938 0.033313 -0.007954
-0.034762 0.036043 -0.006403
-0.020902 -0.052651 -0.008647
0.017117 0.010280 -0.014131
-0.030377 -0.026237 -0.005806
0.026105 -0.042008 0.007170
0.001103 -0.078981 -0.015173
-0.030244 -0.041726 0.007691
0.001057 -0.064235 -0.010254
-0.048526 0.045867 0.015934
-0.019641 -0.055585 0.007745
0.022077 0.023715 0.010723
0.032421 -0.005264 0.005988
-0.067029 0.053172 0.000560
-0.002334 -0.013268 -0.016266
0.022671 -0.031731 0.008144
-0.058735 0.041202 0.012930
0.009020 -0.010098 -0.011373
-0.034451 0.018941 -0.007847
0.029467 0.017960 -0.005526
-0.016944 -0.008824 -0.011555
-0.007307 -0.068482 0.004877
-0.063916 0.046904 0.001855
-0.013154 0.001727 -0.016229
-0.024308 -0.024871 -0.011381
-0.008541 -0.019836 0.011702
0.039849 0.066224 -0.013206
-0.019076 -0.009193 -0.011432
0.021079 0.034660 0.009052
-0.057473 0.055392 0.017302
0.033357 -0.051695 -0.007217
0.029790 0.035597 0.009527
-0.042059 0.029906 0.016181
-0.016497 -0.061060 -0.005848
0.021412 -0.041830 -0.014788
0.024347 -0.012322 -0.016019
0.034453 -0.039225 0.005991
-0.002208 -0.059840 -0.013262
0.027124 -0.050625 0.006603
0.018590 -0.035774 -0.016045
-0.017615 -0.014132 0.013014
0.002019 -0.060623 0.008742
-0.009581 -0.050253 -0.012164
-0.010834 -0.020191 0.009616
-0.052002 0.033228 -0.001986
0.015857 -0.081253 0.007573
0.002995 -0.061895 -0.014862
-0.036594 0.024679 0.013487
-0.050714 0.027972 0.005432
-0.033965 0.037493 0.014911
-0.025224 -0.051992 0.004271
0.035999 0.081433 -0.012455
0.019644 -0.006946 0.009603
-0.011423 -0.024123 0.011766
0.022749 -0.059691 -0.012393
-0.016778 -0.021724 0.010312
-0.033319 0.006980 0.007235
-0.007776 0.006276 -0.015305
-0.026688 -0.000487 0.011729
-0.017829 -0.044560 0.009405
0.019121 0.011618 -0.013962
-0.033743 -0.030458 -0.007397
-0.024686 0.009244 0.012230
-0.048527 0.051151 -0.003900
-0.028975 -0.022510 -0.010264
0.025396 0.043942 -0.013600
-0.040925 0.018762 0.010598
0.031290 0.035721 -0.011698
0.032415 -0.053840 -0.000367
-0.032836 0.004308 0.005116
0.027011 0.044154 -0.011348
0.003885 -0.012553 0.015976
-0.001539 0.004299 -0.017257
0.017677 0.013092 -0.014010
0.009503 0.005361 0.009015
-0.001240 -0.060176 0.009167
0.025080 0.034682 -0.011562
-0.054181 0.048630 -0.005291
0.020377 -0.001446 -0.014997
-0.048546 0.043413 0.015882
-0.005998 -0.015310 0.013854
-0.034054 -0.032121 0.007676
-0.017487 -0.000810 -0.011155
-0.027994 -0.018435 -0.010229
-0.032247 0.020410 -0.004837
-0.016445 -0.021754 -0.012148
-0.013973 -0.029161 0.009559
0.026387 -0.063356 -0.002468
-0.015960 -0.007675 -0.004017
0.029661 -0.051319 -0.017729
-0.034656 -0.029466 0.007040
-0.024225 -0.050603 -0.011750
0.001418 0.006302 -0.012905
0.016728 -0.018948 0.009248
0.040731 0.067112 0.009615
-0.028288 -0.000435 -0.004348
-0.007547 -0.003099 0.016339
0.020971 -0.039660 -0.014726
0.033171 0.067921 -0.010865
0.005441 -0.008492 0.008072
0.018827 -0.027587 -0.013660
-0.064862 0.056889 0.000734
-0.033947 0.023768 0.013813
-0.035785 -0.029178 0.003083
0.015760 -0.019103 -0.012812
-0.044785 0.033039 -0.006334
-0.006836 -0.050491 -0.005327
-0.025798 -0.029210 -0.011249
0.048748 0.069533 0.002570
-0.042030 0.020342 0.011069
0.036801 0.048518 0.008111
-0.006849 -0.061416 -0.001101
-0.037263 0.015655 0.011460
-0.013377 -0.027325 -0.012812
0.033581 -0.022115 0.006908
0.030612 0.068955 -0.011163
-0.008203 -0.002681 0.010084
-0.024600 0.003138 0.013512
-0.022113 -0.006318 -0.010865
-0.003539 0.005308 0.009772
0.025528 -0.011189 -0.016124
-0.022721 -0.055146 -0.004199
0.002790 -0.008557 0.014258
0.048192 0.074692 -0.007235
-0.024451 -0.049258 0.010846
-0.016927 -0.054629 -0.013347
-0.026566 -0.007690 -0.009722
-0.000344 -0.076896 -0.009506
0.025326 -0.021832 0.005800
-0.040051 0.040439 0.015000
-0.011912 -0.050165 -0.002630
0.030709 -0.056323 -0.007851
0.020626 -0.016825 -0.013523
0.039130 0.061443 0.009425
-0.030830 -0.025146 0.011436
-0.038858 0.029883 0.004422
-0.002463 -0.073511 0.001497
0.030011 -0.058559 -0.004562
0.029109 0.058038 -0.011131
0.022986 0.021420 -0.010112
-0.029452 0.018407 -0.004795
0.041955 0.048506 -0.001220
0.043700 0.061487 0.006310
-0.025453 0.013422 -0.007446
0.029142 0.056398 0.011048
0.016609 -0.061723 -0.005779
0.007769 0.007974 0.009954
0.026407 0.048912 -0.013498
-0.001936 -0.015788 0.009606
-0.026073 -0.051904 -0.001300
0.020794 -0.071656 -0.010726
-0.010245 -0.017831 0.009721
-0.009070 -0.029800 0.010122
0.031776 0.041351 0.002142
0.024229 0.049757 -0.010963
-0.036639 0.015581 0.011980
0.032227 0.042347 -0.012450
-0.053129 0.043750 -0.002873
-0.025874 -0.011732 0.012861
0.011429 0.011029 0.011482
0.032808 -0.053542 -0.000189
-0.056085 0.043269 -0.003626
-0.015236 -0.008240 0.001769
-0.010561 -0.012793 0.012872
0.012836 -0.066859 0.003134
0.016899 -0.064206 -0.006646
-0.019940 0.012417 0.012111
0.036483 0.083120 -0.011164
0.023574 0.021325 0.010114
-0.029973 -0.038460 -0.010549
-0.001243 -0.067086 -0.005809
-0.045974 0.042033 0.018017
-0.024577 0.021070 0.012164
0.031756 0.047283 0.000678
0.016433 -0.013557 0.009643
0.034190 -0.045941 0.005767
-0.014514 -0.051003 -0.003448
-0.032555 0.029018 -0.006277
0.000060 -0.073304 -0.016355
0.040863 0.060143 0.005145
0.011314 -0.082758 0.004223
-0.026372 -0.039337 -0.011558
0.028050 -0.018209 -0.016813
-0.066605 0.048756 0.004989
0.029052 -0.058552 0.005779
-0.061653 0.061342 -0.004030
-0.046032 0.032125 0.015762
-0.061627 0.043574 0.001647
0.016218 0.003986 -0.011920
0.025414 -0.035235 -0.014914
0.036866 -0.004064 -0.003910
-0.063498 0.053549 0.011231
-0.030300 -0.039810 0.010147
0.036472 -0.013609 0.005358
0.011262 0.010435 -0.011164
-0.013309 -0.042280 -0.011213
0.020347 -0.007614 0.009543
0.030900 0.062187 0.010966
0.000716 -0.064524 -0.016082
0.035235 0.055238 0.007748
0.000692 -0.074781 -0.002655
-0.036176 0.026004 0.013966
-0.018808 -0.035158 0.012172
0.041806 0.069789 0.009683
0.002363 -0.057792 0.008761
-0.008220 -0.039954 0.009841
-0.032410 0.031559 -0.008421
-0.022314 0.008458 -0.010288
-0.024992 -0.020085 -0.010986
0.039454 0.058292 0.008739
0.009479 0.008974 -0.010875
0.031786 0.036265 -0.011481
-0.051967 0.043180 0.015557
0.022661 0.004132 -0.014200
0.002318 0.003897 0.002528
0.029589 0.049347 -0.011582
0.019361 -0.069858 -0.017963
-0.027171 -0.046949 -0.010984
0.003695 -0.007751 -0.018313
-0.033367 -0.008764 0.003032
-0.069656 0.063822 0.006547
-0.026003 -0.051019 -0.007084
-0.025388 -0.024467 0.010875
-0.004593 -0.003609 -0.017588
0.008359 0.018899 -0.010704
0.026911 -0.032981 -0.015025
0.032247 0.003216 -0.005466
0.009790 0.004011 0.016604
0.011308 -0.081961 -0.006261
-0.043728 0.041182 -0.003730
-0.006875 -0.013232 -0.017795
0.019665 -0.047746 -0.013873
0.018273 -0.081195 0.000989
0.023598 0.038575 -0.011427
0.028938 0.007439 0.002979
0.014662 -0.061778 0.007043
-0.013134 0.008981 -0.008892
0.031226 -0.038147 0.006503
0.038831 -0.014332 -0.011506
-0.042256 0.020952 -0.003362
-0.001446 -0.061489 0.005750
-0.026437 -0.017236 -0.010649
-0.031470 -0.003349 0.006269
0.005178 -0.080441 -0.000441
0.026395 0.054401 -0.013286
0.023490 -0.043116 0.005322
0.008100 0.005015 -0.017749
0.038879 0.072427 -0.011714
-0.052422 0.036345 0.014584
0.032308 -0.043572 -0.018292
0.027868 0.053242 0.011152
0.009992 0.021640 -0.012738
-0.003815 -0.053808 -0.015170
-0.032792 0.031909 0.016292
-0.027067 -0.048420 0.005929
0.010837 -0.068066 -0.015425
0.027658 0.002199 -0.012200
0.004222 -0.002999 -0.018256
-0.029244 0.028472 0.015878
-0.012243 -0.051837 -0.009604
0.018540 0.040427 -0.010505
-0.016457 -0.010629 -0.011671
-0.016076 -0.016340 -0.009855
-0.003522 -0.059951 -0.015390
0.025096 -0.046961 -0.000589
-0.060885 0.044097 0.013541
0.006271 -0.076012 -0.017893
0.023953 -0.025401 0.008212
-0.001811 -0.063558 0.005633
-0.043248 0.047979 0.017236
0.031577 0.001527 -0.008281
0.040400 -0.015708 0.000345
-0.006110 0.006403 -0.012659
-0.026057 -0.048519 0.008998
0.029933 -0.031983 0.007030
0.045433 0.081703 0.003924
0.013065 -0.066754 -0.012605
-0.006650 -0.000446 0.016374
-0.063237 0.060502 0.016322
0.044342 0.064126 -0.006171
0.048181 0.069258 -0.006842
0.025714 -0.025884 0.007880
-0.033800 -0.035164 -0.005096
0.020501 -0.043800 0.007868
-0.015857 -0.061027 -0.010962
-0.012286 -0.051828 -0.008520
-0.008896 -0.004351 0.016691
-0.000593 0.005010 -0.004905
0.034809 0.071502 -0.011372
0.036248 0.071008 0.008505
0.027162 0.001728 -0.013003
0.036878 0.050394 0.008558
-0.020169 0.010209 -0.003177
-0.015199 -0.030782 -0.012716
0.040286 0.058661 0.005496
0.020994 0.010015 0.010216
0.021413 0.042793 -0.013160
-0.053248 0.049992 -0.005433
-0.029457 -0.022127 0.012148
-0.010997 -0.066382 -0.004230
-0.047528 0.035495 0.014017
-0.016400 -0.029361 -0.010391
0.030081 0.054566 0.010811
0.029721 0.050822 -0.013657
-0.027600 0.012683 -0.007056
0.021687 0.049747 -0.012593
-0.004224 -0.050192 0.007551
0.013454 -0.001684 0.015938
0.032150 -0.029964 0.000742
-0.036181 -0.027498 0.000223
0.031882 -0.010592 -0.015592
-0.029093 0.019493 0.007531
0.029752 -0.021516 0.007568
-0.038388 0.026339 -0.007606
-0.020886 0.013025 -0.010327
0.041725 -0.028403 0.002212
0.013190 -0.073323 0.008520
0.017274 -0.064299 -0.002559
-0.024481 -0.030803 -0.005414
0.041371 0.056786 0.006803
0.014219 0.011906 0.011152
-0.002777 -0.072969 0.001456
-0.009518 -0.003967 0.010316
0.039272 0.086894 -0.003370
0.030894 0.019958 -0.001616
-0.042569 0.039040 -0.004820
0.045995 0.060422 0.001324
0.016321 -0.013449 -0.012836
0.032304 -0.025091 0.006958
0.007936 -0.014669 0.015060
0.034727 0.040667 -0.010448
-0.018717 -0.040552 -0.012641
0.020192 0.032373 -0.013527
0.018471 -0.048067 0.005924
-0.017289 -0.007654 0.013229
0.038863 -0.014694 0.002596
0.008853 0.002261 -0.010821
0.021893 0.050804 -0.012037
-0.064359 0.065446 -0.001777
0.010729 0.004652 0.015897
-0.024817 0.007406 -0.010018
-0.026104 0.010774 0.014401
0.012168 -0.013250 -0.014367
0.025158 0.035272 0.010794
0.019578 0.028948 0.009110
-0.005524 0.001605 0.015247
-0.007547 -0.009467 0.016087
0.030289 0.047299 -0.001236
0.009834 -0.000967 0.016169
-0.047515 0.045356 -0.003975
-0.008461 -0.068393 -0.000232
-0.016694 -0.011085 -0.011702
-0.014979 -0.009524 0.005881
0.020128 0.040289 -0.010858
0.044928 0.063958 0.005676
0.022840 0.043985 0.009088
0.031534 0.004999 -0.004100
0.024895 -0.057112 -0.018213
0.037080 0.078961 0.009602
0.039372 0.084464 0.003135
0.036111 0.074901 -0.011623
-0.051913 0.032655 -0.001338
-0.051547 0.031348 0.010947
0.020820 -0.000632 -0.015007
-0.009418 -0.027497 0.010796
-0.010319 0.004773 -0.009595
-0.034957 0.038724 0.016039
0.020877 -0.040702 0.007722
0.028099 0.036926 0.008046
-0.027593 0.022294 -0.006445
0.020183 -0.061914 0.007048
-0.058975 0.063808 0.019657
0.029865 -0.007429 0.007775
-0.040799 0.033984 0.002664
-0.046233 0.042791 -0.006416
-0.030527 0.019246 0.012796
0.040040 0.054883 -0.010593
-0.007757 -0.062238 -0.014875
0.015926 0.022255 -0.011169
0.022986 -0.038459 -0.014784
0.039301 -0.040845 -0.001844
0.011407 -0.079296 -0.018711
0.028460 0.054716 0.008590
0.004485 -0.003575 -0.009638
0.013559 -0.069857 0.008410
0.018226 -0.016161 0.007091
-0.000591 -0.009106 0.004037
-0.023488 0.014068 0.014887
0.021704 0.029688 0.001046
0.015642 0.034465 -0.010430
-0.014033 -0.019599 0.010009
-0.018013 -0.003221 -0.008708
0.017226 0.014907 0.008753
0.021662 -0.039250 0.007790
-0.003056 0.006360 -0.009155
0.049026 0.069331 0.001383
0.033268 0.051044 0.010165
0.016691 -0.069314 -0.008536
0.020544 -0.038185 -0.016744
-0.005871 -0.058253 -0.001505
0.040515 -0.034153 -0.011223
0.001466 -0.064316 -0.002468
-0.023691 -0.004593 -0.007943
-0.016789 0.004449 -0.007972
0.032906 0.002399 -0.005077
-0.025187 0.020479 0.015244
0.038552 0.053258 0.001528
-0.018200 -0.044005 0.011743
-0.014718 0.008938 -0.008672
-0.013296 -0.063736 -0.009389
-0.008816 -0.056376 -0.014576
-0.052013 0.040269 -0.004848
0.022462 -0.018085 -0.016040
-0.038447 0.021785 0.011540
-0.062356 0.045635 0.000762
0.028520 -0.018260 0.007908
-0.006013 -0.049282 -0.000816
-0.021519 0.020169 0.014880
0.024689 0.051935 -0.013202
-0.046959 0.045412 0.015811
-0.011514 -0.064765 0.003892
0.034020 0.064714 0.010848
0.019097 -0.060602 -0.005084
-0.020853 -0.046526 -0.012562
0.020922 -0.009015 0.007106
-0.030845 -0.017391 0.010082
0.004704 0.003992 -0.017506
0.014237 -0.008608 0.013746
-0.043571 0.041188 -0.004149
0.011979 -0.002508 0.016012
0.017274 -0.027832 -0.014145
0.019019 -0.078135 0.000251
-0.032578 0.026455 -0.006370
-0.068847 0.055248 0.010376
0.040699 0.060137 -0.009118
0.045232 0.068969 0.007285
-0.025919 -0.049123 0.006984
0.000429 0.004611 -0.004251
0.034932 0.073558 -0.013723
0.015889 -0.076115 0.007345
-0.012169 -0.018163 0.012144
-0.062422 0.047345 0.014582
0.000041 -0.001966 0.016075
-0.057817 0.059772 -0.004796
0.023264 -0.040299 -0.015077
0.008769 -0.005652 0.016131
0.037742 -0.009710 0.002238
-0.010536 0.006851 0.010721
0.036122 0.069596 0.008468
0.032395 -0.005038 -0.012950
0.029527 -0.025696 -0.017290
-0.063253 0.044123 0.006001
0.004209 -0.077904 -0.017201
0.038652 0.041644 -0.005047
-0.031824 -0.013477 0.009015
0.024715 -0.060780 0.003628
-0.013142 0.002654 -0.015461
0.018878 -0.068546 -0.017920
-0.042393 0.039902 0.012367
0.024476 0.047711 0.008920
0.015649 0.012033 -0.011492
-0.042791 0.027533 0.007536
-0.029681 -0.031151 -0.010584
0.005258 -0.080889 -0.012461
0.039728 0.046805 0.004287
-0.002323 0.005201 -0.005410
0.019641 0.035184 0.009143
-0.034907 -0.020467 -0.003746
-0.048416 0.048819 0.016178
-0.022829 -0.033309 0.012721
-0.010932 -0.040549 -0.013406
-0.018518 -0.010188 0.013233
0.022711 -0.069076 -0.012222
-0.026649 -0.041878 0.012224
0.019464 -0.032181 -0.014152
-0.001946 -0.073095 -0.016058
0.032834 0.052849 0.005604
0.038931 -0.031090 -0.015813
-0.048284 0.049591 -0.006035
-0.025951 0.018312 0.001464
0.016063 -0.082285 -0.002116
0.024631 0.050419 -0.010968
0.030397 0.024966 0.006034
0.026352 -0.027586 -0.016919
0.014753 -0.051962 -0.016736
0.028883 0.063708 -0.013400
0.036789 0.037367 0.002921
-0.011953 -0.063845 0.003603
0.024539 0.045640 -0.013410
0.030375 0.018978 0.000638
-0.015686 -0.042108 0.011555
0.018585 -0.046637 0.007393
-0.041216 0.025680 0.007230
-0.003740 -0.007842 -0.017953
-0.012965 0.007821 0.011217
-0.039940 0.041215 0.017272
-0.003822 -0.063743 -0.015506
0.020870 -0.057131 -0.015475
-0.030411 -0.022338 -0.009510
-0.045352 0.025162 0.011969
0.029709 0.029822 -0.008704
-0.015820 -0.026450 -0.010296
0.039584 -0.037863 -0.010818
0.017947 -0.048490 0.007211
0.023924 0.033113 -0.001527
-0.067066 0.068782 0.006135
-0.023259 0.023661 0.015219
-0.014037 -0.007314 0.010489
0.025283 0.057484 -0.013025
-0.017787 0.005547 0.013872
-0.039092 0.026748 -0.007475
0.004043 0.000026 -0.018106
0.043131 0.059207 -0.000704
-0.064230 0.068436 0.008147
0.027461 0.046841 -0.013647
-0.001509 -0.006895 0.014963
0.033095 -0.049857 0.005595
0.038085 0.054437 0.005998
-0.032520 0.034418 0.013962
0.018443 -0.021631 0.006739
-0.002580 -0.073430 0.003068
-0.016804 -0.043837 0.011581
0.009601 -0.072011 0.008309
0.019221 -0.001064 -0.001046
-0.067637 0.056172 0.015127
0.042225 -0.026301 0.000951
-0.021030 -0.006971 -0.008101
0.006437 -0.004239 0.013572
0.028466 0.038243 -0.013283
-0.019012 -0.025976 0.012670
-0.006238 -0.016314 0.012502
-0.061184 0.044707 0.013701
0.033187 -0.027543 0.006787
0.010422 -0.082145 -0.014266
0.004341 0.006138 0.014008
-0.000632 -0.007743 0.015032
-0.010822 -0.044338 0.008601
-0.004933 -0.011227 0.014911
0.028915 0.016528 0.003930
0.023724 -0.040503 0.007511
-0.029410 -0.047678 -0.000199
-0.018557 -0.042235 0.011911
-0.033962 0.012083 0.011545
0.037886 0.071222 0.010544
-0.012939 -0.051973 -0.005034
-0.008058 -0.001037 -0.017243
0.022846 -0.060683 -0.000382
0.011138 0.000349 -0.016932
-0.023265 -0.026143 -0.011497
-0.026246 -0.049491 0.005112
0.026303 -0.035525 0.007369
-0.022657 -0.017882 -0.011245
-0.016638 -0.028606 0.010002
0.027336 0.052885 0.008726
0.042173 0.065149 0.008563
0.010670 -0.005252 0.008293
0.007546 -0.081813 -0.008122
0.035674 -0.048188 -0.005151
-0.011638 -0.065003 0.002965
0.029257 0.039271 -0.013109
0.031987 0.071271 -0.010812
-0.026059 0.021139 0.010432
-0.033620 -0.012450 -0.003059
0.015054 -0.005877 -0.011361
-0.052533 0.058789 0.018767
0.033755 0.027547 -0.003087
0.039741 0.060621 0.008993
0.020335 -0.042941 0.005731
-0.054770 0.058398 -0.003296
0.013936 -0.064222 -0.015581
-0.003699 -0.052377 -0.015136
-0.013366 -0.023754 -0.010483
0.003243 0.005722 0.016158
-0.019778 -0.015350 0.013161
0.007036 -0.070435 -0.018384
-0.026002 -0.051608 -0.005015
0.001324 -0.011351 -0.016093
0.040886 -0.036598 0.000784
-0.011577 -0.065626 -0.001539
0.019030 0.028029 0.007556
-0.043146 0.038802 0.017587
-0.061150 0.068661 0.016348
-0.016381 -0.040022 -0.000600
0.002811 -0.010457 -0.010614
0.005914 -0.072039 0.007897
0.038052 0.079355 -0.010623
0.035700 0.037955 -0.008260
-0.013233 -0.064267 -0.003213
0.031821 0.031416 -0.010038
-0.002339 -0.010973 -0.018140
-0.025264 -0.035441 0.008599
0.004488 -0.006640 0.013724
-0.031985 0.009081 -0.006044
0.005262 -0.064847 -0.016821
0.041946 -0.020068 -0.008499
-0.022925 -0.055003 -0.001238
-0.001597 -0.009620 0.009152
-0.036964 0.014577 0.010923
0.044852 0.078200 -0.006837
-0.010715 -0.027680 0.009192
-0.005402 -0.051022 0.005130
-0.061954 0.043722 0.001984
0.039209 -0.032606 -0.014807
0.030569 -0.044580 0.006339
0.012012 0.007578 0.011437
0.022152 -0.038316 0.007819
-0.000098 -0.077482 -0.012460
0.030452 0.050915 -0.009683
0.027453 0.054139 0.011053
0.027627 -0.056072 0.006246
-0.017154 -0.037426 -0.012693
0.020456 -0.027301 0.007833
0.020768 0.025112 0.008140
0.031487 0.004268 0.000824
0.020741 -0.018233 -0.013459
-0.050085 0.045253 0.018491
-0.049663 0.040554 0.017514
-0.057043 0.038269 0.011849
-0.019037 0.011719 0.012016
0.022502 -0.026454 -0.014208
-0.010146 -0.023331 0.009474
-0.068458 0.058772 0.014485
0.004180 -0.059012 0.007328
0.014223 -0.017689 0.009056
0.033540 0.034173 0.006390
0.000439 0.004541 -0.000425
-0.011414 -0.046371 -0.011792
0.032602 -0.031649 0.006676
-0.047975 0.038508 -0.000572
0.000327 -0.058320 0.006581
-0.011942 -0.051832 -0.009226
0.017351 -0.060597 -0.010480
-0.019551 -0.038074 0.012156
0.029275 0.017277 0.003246
0.020982 0.038228 0.011407
0.027987 0.052815 0.008625
-0.036968 0.038683 0.016947
-0.007320 -0.049675 -0.003935
-0.037296 0.038053 -0.005498
-0.048807 0.049859 -0.006009
-0.021190 -0.034293 -0.012121
-0.012241 -0.019593 -0.010341
0.042304 0.081267 0.007806
-0.043357 0.035733 0.017310
0.010238 0.023721 -0.012196
0.021245 -0.077053 0.004768
-0.041015 0.041913 0.015038
0.013016 0.022387 -0.010910
0.029628 -0.034845 -0.017731
-0.010089 0.007081 0.013106
-0.058279 0.057703 -0.004728
0.020985 -0.038750 -0.016826
-0.007174 -0.015993 -0.014159
-0.003000 -0.007697 0.016803
-0.001511 0.004431 0.015550
0.020592 -0.060748 -0.008244
-0.008205 -0.023719 0.010736
0.011428 -0.008344 -0.011823
0.022478 0.047497 -0.010755
0.028803 -0.039640 -0.017861
-0.016177 -0.006163 0.007113
0.015746 -0.042859 -0.015901
-0.021390 0.020529 0.014935
0.022679 -0.025978 0.008302
-0.053162 0.058778 0.017094
0.025413 -0.044924 -0.017683
0.025004 -0.061292 0.006391
0.027158 -0.000364 -0.013962
0.002982 -0.010799 -0.017808
0.017017 0.021001 0.011386
0.045106 0.069173 -0.011050
0.030502 0.024256 0.005649
0.000389 -0.062351 -0.016024
-0.011395 -0.016111 0.012233
0.009256 -0.070937 -0.018049
-0.002258 -0.014952 0.008779
-0.057055 0.057056 0.017328
-0.034010 -0.020076 0.006951
-0.010867 -0.011637 -0.009991
0.017646 -0.016506 0.009372
0.024452 -0.059135 0.004214
0.022872 0.052619 -0.011343
0.012263 -0.011771 0.007861
-0.060932 0.061299 0.019708
-0.060127 0.046262 0.015829
-0.010414 -0.048280 0.010719
0.033516 0.069234 0.010483
-0.008846 -0.020082 0.011703
0.049185 0.069590 -0.003672
0.034215 0.046592 0.009280
0.039550 0.066420 -0.013317
0.028437 0.010559 0.004013
0.009056 -0.009758 -0.011368
0.005486 -0.005540 0.004836
-0.035634 -0.020366 0.004034
-0.008346 -0.022513 0.011387
0.035752 -0.014104 -0.014638
0.002357 -0.013309 0.009936
-0.002574 -0.073999 -0.015474
-0.002430 -0.013762 0.015771
-0.016038 -0.058905 -0.013340
0.009903 0.002739 0.004724
0.034363 -0.002463 0.002412
-0.017896 0.002783 -0.004463
0.042499 -0.029804 -0.003483
-0.034433 0.007237 0.003060
0.004925 -0.005899 -0.018375
0.005465 -0.000409 0.014567
0.043836 0.068615 -0.011893
0.018115 -0.045836 -0.005028
0.010454 0.014746 0.011004
-0.028413 0.005015 0.012002
-0.032139 -0.028227 0.010203
-0.005985 -0.056735 -0.014953
0.033295 0.027061 0.001176
0.039278 -0.024318 -0.014657
0.009041 0.019429 -0.012801
0.042499 -0.029022 -0.006170
0.021191 0.048589 -0.012599
-0.032763 -0.009860 -0.001837
-0.000684 -0.069369 0.000894
0.024984 0.049570 0.009224
0.030948 -0.052893 -0.013478
0.025561 0.043109 0.010967
-0.003576 -0.005417 0.016884
0.022262 -0.060586 -0.004269
0.005325 0.005772 0.012114
0.038649 -0.025152 0.005485
-0.030210 -0.041057 0.009085
0.038333 0.068132 -0.013741
0.025349 -0.064199 -0.011542
0.028442 0.056912 0.010906
-0.002839 -0.003452 0.016793
-0.057282 0.059442 0.017546
0.018990 0.013317 -0.011720
-0.033789 0.020633 -0.005348
-0.029985 0.028256 -0.006676
-0.011208 -0.016649 0.009822
0.031347 0.064750 0.009155
0.036421 0.034248 -0.001103
0.031803 -0.003571 -0.012968
-0.006752 -0.020899 0.011268
-0.015993 -0.033898 0.009548
-0.003155 -0.066467 0.009140
0.033082 -0.026902 -0.017799
-0.012191 0.003600 -0.016405
0.033301 0.067674 -0.010774
0.021288 -0.033778 -0.014456
-0.063592 0.061458 -0.000533
-0.013724 -0.052740 -0.013752
0.018401 -0.034984 -0.015869
-0.004559 -0.071704 -0.015278
-0.015173 -0.046871 0.011302
0.029096 -0.031741 -0.011374
0.024695 0.037925 0.010869
0.039754 0.055088 0.000291
-0.028471 0.027399 0.013530
-0.028327 0.023994 -0.007150
-0.067291 0.050071 0.010551
0.023832 -0.033149 0.005717
0.025356 -0.059105 0.004117
-0.006673 -0.006910 0.014235
-0.006786 -0.015418 -0.015183
0.026289 0.048600 -0.011109
0.032642 0.058685 -0.011621
0.016704 -0.055263 -0.014724
0.021260 -0.032220 0.006598
0.022986 -0.052581 -0.014845
-0.022820 0.007409 0.014336
0.032056 0.062669 -0.013664
0.014354 -0.082065 -0.011188
0.022072 -0.021497 -0.016167
0.029521 -0.031695 -0.004739
0.025628 -0.064139 -0.001351
-0.033379 0.030636 -0.006304
-0.008227 -0.007618 0.016251
0.020450 0.025872 0.001843
-0.036698 0.016297 0.012387
0.031118 0.043592 0.010062
-0.027196 -0.018235 -0.010462
0.024493 0.028534 0.006883
0.026972 0.029932 0.000350
0.023122 -0.072647 0.002811
0.028492 -0.011568 0.005610
-0.025493 0.018361 0.015199
0.034120 -0.050749 -0.006137
0.034848 -0.043796 -0.016159
