-0.019457 0.029187 0.030412
0.020375 0.039959 0.017250
-0.020054 0.008252 0.055262
0.023813 0.040749 -0.088251
-0.020045 0.015255 -0.000927
-0.011798 0.041575 -0.084357
0.016732 0.037770 0.076886
0.023151 0.015126 -0.012591
0.016958 -0.019712 0.055359
-0.015706 -0.006036 -0.091455
-0.007044 0.043551 -0.004721
0.023594 -0.011286 -0.084529
-0.014955 0.033847 -0.088292
0.019330 -0.001064 0.035073
-0.023045 -0.035041 0.073432
0.002723 -0.046967 -0.003017
-0.019016 0.030320 0.055812
-0.021100 -0.004668 0.005853
0.004077 0.042747 -0.029061
-0.007892 0.032630 -0.091501
0.017929 0.042764 0.019584
0.015038 -0.011569 -0.092147
0.001674 -0.047437 -0.028559
-0.009179 0.042462 -0.071862
-0.019540 -0.009434 -0.071090
-0.020266 -0.040455 -0.009136
0.004265 0.042877 -0.071448
0.019022 0.014525 0.040379
-0.020980 -0.037610 0.011165
0.025030 0.016703 -0.086052
-0.017438 -0.042837 -0.077963
-0.008728 -0.047462 -0.066475
-0.021743 -0.002667 0.070980
0.020572 -0.023543 0.005674
0.018456 0.042626 0.012691
0.015079 -0.045630 0.044787
-0.006597 -0.043358 -0.091691
0.011945 -0.028510 -0.091807
-0.009022 -0.044902 0.081018
-0.020982 -0.001368 0.009303
-0.016534 -0.046520 -0.046428
0.010472 -0.048295 -0.077654
-0.009334 0.042453 -0.050551
-0.017180 0.036614 0.081717
-0.015170 0.043478 0.002874
-0.022640 -0.011045 0.076670
-0.009140 0.045168 0.068672
0.018160 -0.046041 -0.021699
-0.016787 -0.046550 -0.065412
0.009286 -0.046523 0.019928
-0.002664 -0.048059 -0.078563
-0.018759 -0.029829 -0.077993
-0.022569 -0.022946 0.070178
-0.006059 0.043871 0.016441
-0.005466 0.039832 0.081901
-0.008192 -0.045769 0.053939
0.004611 0.043672 0.043392
-0.018596 -0.027275 -0.083027
0.020255 0.041177 0.017346
-0.019511 -0.001046 -0.067932
0.020630 0.020422 0.022845
0.018782 0.042695 0.029947
0.024124 0.039407 -0.073391
0.019382 -0.006484 0.033581
0.014737 -0.044092 0.067677
0.022055 -0.012350 -0.090853
0.025490 0.026638 -0.078426
0.007978 0.043032 -0.001351
0.025580 0.022461 -0.081026
0.018166 0.011062 0.047649
-0.001450 0.043241 -0.021733
-0.015088 0.041149 -0.043861
-0.019481 0.027147 0.018958
0.023178 0.026077 -0.022017
0.016737 0.043481 0.069119
0.018472 0.041490 -0.048247
0.005843 -0.046360 0.023181
-0.018251 -0.045764 -0.038553
-0.021187 -0.009902 -0.003713
-0.017492 0.013897 -0.086681
-0.012593 0.019403 -0.091488
-0.008286 -0.045874 0.024886
-0.019860 0.015242 0.057233
-0.015566 0.041692 -0.027976
0.018482 -0.006840 0.041233
-0.016952 0.039190 -0.014106
-0.012640 -0.045770 0.020236
0.023569 0.024849 -0.028612
0.017728 -0.025183 0.042244
0.015694 0.015472 -0.092023
-0.017509 0.031906 -0.027697
0.015292 -0.047188 -0.012000
-0.016337 0.044433 0.081248
0.000423 -0.046240 0.022205
-0.016607 0.032724 -0.047670
-0.022643 -0.043867 0.067221
0.022271 0.030864 -0.011889
0.006098 0.042795 -0.070505
0.015764 -0.044758 0.043003
-0.019840 0.011774 0.053891
0.018046 0.034733 0.056489
0.024231 -0.001190 -0.083142
0.022136 -0.036580 -0.067712
0.015603 -0.034448 0.080822
-0.017254 0.012422 -0.087753
-0.001951 0.044623 0.067838
0.005738 -0.046886 0.002625
0.024186 0.012354 -0.089673
-0.021241 -0.020601 -0.001934
-0.014427 -0.046692 -0.044055
-0.021300 -0.020392 0.004482
0.011892 -0.036854 -0.091365
0.015317 -0.046921 -0.002420
0.023462 -0.026128 -0.077498
0.017183 -0.028937 0.046286
0.024485 0.037142 -0.074584
-0.005424 0.000405 0.083108
0.010032 0.042881 -0.018139
-0.017272 -0.045359 0.066642
0.020474 0.041944 -0.003598
-0.018064 0.033886 -0.004592
-0.019488 0.021098 -0.006454
0.017370 -0.017437 0.050484
0.023814 -0.017776 -0.045455
0.015099 0.003525 0.082838
0.019052 0.025196 0.041732
-0.019541 0.027532 0.027880
0.012837 -0.045743 0.073531
-0.017349 -0.014248 0.082734
0.015116 0.041703 -0.053521
0.017465 -0.045857 -0.006731
-0.016079 0.045523 0.060202
-0.019144 -0.040043 -0.040115
-0.020278 0.014776 0.014989
-0.021069 -0.007584 0.020674
-0.020921 -0.001840 -0.008536
-0.021234 -0.027085 0.009784
0.005561 0.043589 0.034734
0.022501 -0.014307 -0.090048
-0.019314 -0.026550 -0.067006
0.006657 0.043257 0.013384
0.019343 0.019499 0.038742
0.014424 0.033571 -0.091663
-0.020793 -0.010253 -0.033115
-0.011750 0.044203 0.030088
-0.013812 0.041164 -0.063443
-0.020882 0.035298 0.080779
0.017759 0.032587 0.058976
-0.014383 -0.046589 -0.039014
-0.021122 0.002590 0.065547
0.002503 -0.046018 0.049161
0.018375 0.024760 0.048733
-0.017227 0.021656 -0.085264
0.024309 0.012199 -0.089057
-0.016081 0.023256 -0.089893
-0.020266 0.002721 -0.037671
0.007415 0.042605 -0.029728
-0.019924 -0.044826 0.076859
-0.021262 -0.026998 0.010571
-0.015977 0.028237 -0.086342
0.019918 0.016964 -0.091757
-0.000532 0.042961 -0.028218
-0.020552 -0.043133 0.004534
0.018701 0.012204 0.043188
-0.020741 0.007582 0.063997
-0.019964 0.014772 -0.010633
0.020783 -0.000121 0.019419
0.015712 0.042498 0.000465
0.019903 0.002285 0.029903
0.023921 -0.012687 -0.081363
0.020223 0.009252 0.028617
-0.020074 0.016622 0.009214
0.022884 -0.032661 -0.077347
0.023884 0.040128 -0.069731
-0.015663 0.043306 0.004456
0.017978 0.012926 0.049578
-0.017913 0.043159 0.030686
0.025288 0.003695 -0.063108
0.025051 -0.000894 -0.072696
0.008287 0.043477 0.037790
-0.009546 0.043783 0.010337
-0.003199 0.043574 0.004773
0.020738 -0.035194 -0.090725
-0.016844 0.039220 -0.016512
-0.017813 0.037606 0.002491
-0.018120 0.044451 0.055560
0.024908 0.002826 -0.046732
0.018787 0.005520 0.040970
-0.008092 0.042935 -0.084165
-0.012319 0.043949 0.014805
0.015230 0.042569 -0.017482
0.013900 0.041726 -0.052925
-0.019537 0.020341 -0.007850
0.022062 0.033259 -0.011465
-0.002092 0.042991 -0.079249
0.007947 0.043069 -0.010367
-0.015187 -0.045840 0.006374
-0.013896 -0.046517 -0.091613
-0.006107 -0.046199 0.018745
-0.022089 -0.012273 0.081558
0.014955 -0.046147 0.033358
0.009501 -0.029269 0.083556
-0.022167 0.013464 0.079786
0.023215 -0.024226 -0.048106
-0.006081 0.043904 0.017973
0.021873 0.034402 -0.009233
0.020711 -0.012713 0.014429
-0.018972 0.026150 -0.006762
-0.021277 -0.014672 0.020397
-0.019717 -0.005764 -0.065711
-0.013846 0.043826 0.007121
0.012646 0.041966 -0.057501
0.024036 0.037678 -0.091306
-0.013213 0.039536 -0.090332
0.024942 -0.003546 -0.054241
0.018270 0.035261 0.053267
-0.020428 0.010283 0.004445
-0.020902 -0.030625 -0.006436
0.025170 0.017003 -0.056880
-0.002450 0.042948 -0.077179
0.020920 0.004968 0.018481
-0.019641 -0.007579 -0.068087
-0.006805 -0.042921 -0.091713
0.025106 -0.000053 -0.057215
0.015598 -0.048386 -0.087650
-0.021246 0.017394 0.073388
-0.016698 0.026185 -0.083204
-0.016421 0.027860 -0.078943
0.013311 -0.046541 0.019078
-0.011551 -0.028618 0.082807
-0.021097 -0.019797 -0.015483
0.022980 0.006250 -0.008956
0.016642 -0.044622 -0.090663
0.000313 -0.032486 -0.091989
0.012881 0.021594 -0.092035
0.024371 0.022035 -0.042800
0.016129 -0.007559 0.082182
-0.019202 -0.045546 0.048448
0.017113 -0.029944 0.046354
0.023128 -0.006250 -0.089016
-0.012140 0.042149 -0.064024
-0.020625 -0.014655 -0.040191
0.019735 0.003785 0.031169
0.017998 0.022470 0.052574
0.025012 0.009384 -0.081948
0.019330 0.041094 0.038087
0.018316 0.041889 -0.089073
-0.016999 -0.044395 -0.086398
0.012953 0.042627 -0.020709
-0.019719 -0.041533 0.082639
-0.021269 0.012596 0.071517
-0.013591 -0.004697 -0.091754
-0.021932 -0.011360 0.066766
0.003128 0.043600 -0.086996
0.010554 -0.033593 0.083400
0.018252 0.009938 0.046468
-0.000376 -0.045953 0.055491
-0.009877 0.044019 0.025113
-0.022280 -0.009366 0.073421
0.002870 0.043681 0.033487
-0.004844 -0.047914 -0.085189
-0.017217 -0.045844 -0.000894
-0.014209 0.021259 -0.091314
-0.023345 -0.034379 0.077705
0.004202 0.032661 0.082852
-0.000354 0.042528 -0.061062
0.020319 -0.047491 -0.080856
0.020874 0.038099 0.007083
-0.020187 -0.043591 -0.004839
-0.019055 0.036201 0.037780
-0.018398 0.038864 0.018028
0.006647 0.043271 -0.083112
-0.018829 -0.034788 -0.062139
-0.019273 -0.026679 -0.068472
0.018353 -0.010379 0.041571
0.012441 0.024199 -0.091989
-0.021128 -0.011446 0.020968
0.015733 -0.014799 0.082579
0.019309 0.042346 0.028073
0.025477 0.026094 -0.076790
0.020413 -0.010529 0.020020
0.012413 -0.020246 0.083476
0.017456 0.007233 -0.092023
0.018781 -0.028522 0.024533
-0.012462 0.042497 -0.046541
-0.020476 -0.009125 -0.046268
-0.002718 0.044704 0.063975
0.021650 0.041387 -0.083441
0.021939 -0.018209 -0.007586
0.020006 0.041622 0.019612
0.025287 0.007659 -0.057990
-0.021019 -0.008161 0.058385
-0.019445 -0.030692 -0.054526
0.018609 0.031710 0.047976
-0.019854 -0.035354 -0.031360
-0.019415 -0.045228 -0.015364
-0.004739 -0.044425 0.082451
-0.021076 -0.022520 -0.012839
0.025495 0.017666 -0.067743
-0.010781 0.042118 -0.090298
0.024376 0.003895 -0.084300
-0.006824 0.027046 0.082303
-0.002290 0.043108 -0.024655
0.018488 0.002643 0.042784
-0.022347 -0.006562 0.074092
0.015191 -0.035540 0.074850
-0.002124 0.044161 0.050034
-0.015059 -0.029428 -0.091705
-0.016031 0.017505 0.082339
0.020999 -0.003278 0.015585
0.024473 0.010800 -0.087102
0.022684 0.015509 -0.005580
-0.019031 0.036523 0.039306
-0.017248 0.041586 0.002152
-0.018710 0.018895 0.082013
0.016520 0.009062 0.065745
0.020934 0.037461 0.006723
0.019697 -0.022178 0.020467
-0.018437 0.034465 0.008391
-0.012006 -0.045918 0.013687
0.021342 0.022596 -0.091648
-0.005959 -0.042770 0.082718
0.017692 -0.004251 0.050201
0.010945 0.043258 0.030999
0.025519 0.034390 -0.088928
-0.008603 -0.046474 -0.004873
0.018269 -0.017821 0.040026
-0.021178 -0.016560 -0.013439
0.016837 -0.030729 0.049069
-0.013021 0.044302 0.081420
-0.014853 0.044715 0.044567
0.011221 0.024638 -0.092015
-0.020333 0.003055 0.057042
0.016982 0.000938 0.059235
-0.010656 -0.009011 0.083085
-0.000675 0.043501 0.006415
0.016465 0.006731 0.067841
0.023417 0.006630 -0.016058
0.020373 0.009002 0.026291
0.024869 0.005375 -0.080878
-0.020822 -0.042776 0.011682
-0.014167 -0.047064 -0.071188
0.023386 -0.006786 -0.020196
0.009095 -0.047753 -0.038061
-0.022305 0.010824 0.079587
0.019333 -0.047580 -0.068256
-0.017104 0.044104 0.040372
0.019312 -0.016230 0.030899
-0.001544 0.044576 0.064351
0.000134 -0.045997 0.079380
0.024435 -0.011531 -0.050675
-0.006841 0.044271 0.044482
0.018756 0.009778 0.041957
0.017603 -0.041793 0.015186
0.001564 0.043109 -0.020124
0.022264 -0.035562 -0.066518
0.019264 0.002636 0.036422
-0.015890 0.042285 -0.014885
0.025268 0.002756 -0.063413
0.022547 0.040551 -0.090931
-0.020982 -0.005939 -0.017575
-0.011312 0.044465 0.038754
0.008455 0.043025 -0.019130
-0.022235 -0.002707 0.075084
-0.011832 0.044142 0.024821
-0.017139 0.033823 -0.029870
0.013459 0.035595 0.082524
0.005009 0.044132 0.066364
-0.016806 -0.046381 -0.037211
-0.019692 -0.044769 0.079250
-0.011896 0.041302 -0.087811
-0.019605 0.016605 0.054640
0.013180 -0.024386 0.083465
0.022320 0.029667 -0.011119
0.023583 0.024784 -0.028848
-0.016155 -0.045772 0.006878
0.018741 0.042690 0.034640
-0.013613 0.008812 0.082665
-0.017196 -0.046247 -0.026731
-0.020725 0.004931 0.008806
-0.016085 0.023810 -0.088755
0.025317 0.011882 -0.079781
0.019462 0.020729 0.037077
-0.001477 -0.043335 -0.091515
-0.004480 0.042711 -0.070308
0.017686 -0.021596 0.044927
-0.020167 0.016556 0.014926
0.006200 0.042098 -0.054234
-0.016076 0.038541 -0.035805
-0.015977 -0.034022 -0.091656
-0.010833 0.034527 -0.091237
0.019213 0.002515 0.036753
0.024700 0.020839 -0.048742
-0.020141 -0.044376 -0.004813
-0.017552 -0.018810 -0.089135
-0.020387 0.044030 0.079617
0.019571 0.042225 0.020472
-0.001096 -0.044543 0.082372
0.002649 -0.046342 0.021251
0.023555 0.029025 -0.035963
0.018416 0.032322 0.050576
0.003172 -0.046687 0.009681
0.017043 -0.048219 -0.078933
-0.020354 -0.017701 -0.047713
0.020921 0.041791 -0.032368
0.017261 -0.030965 0.043599
0.012188 0.042035 -0.059167
-0.020175 -0.037799 -0.016078
-0.021438 -0.036902 0.018405
-0.005378 0.042520 -0.038384
0.017449 -0.000976 0.052414
0.024938 0.017918 -0.051295
0.021744 0.041376 -0.045545
-0.003615 0.043799 0.022684
0.019814 0.041955 0.020932
0.025154 0.009086 -0.052113
0.017177 0.030747 0.078697
0.007011 -0.046390 0.021247
-0.018688 0.018312 -0.049768
0.018328 0.042520 0.003517
0.016420 -0.043493 0.033766
-0.007376 0.042822 -0.033506
0.002515 0.042587 -0.032818
0.025155 0.009577 -0.080482
-0.021346 -0.030791 0.020457
0.016160 -0.001173 0.082562
0.013609 0.044385 0.079522
0.009611 0.042743 -0.073955
0.010827 0.042539 -0.027517
-0.011502 0.043194 -0.026140
-0.022417 0.003035 0.079862
-0.005089 0.045051 0.074668
-0.014985 0.041293 -0.044070
-0.014624 0.045131 0.079087
0.025446 0.020967 -0.069517
-0.019038 -0.042875 -0.035277
-0.014849 -0.045530 0.035243
-0.021329 -0.016527 0.023513
0.016724 0.030422 0.076268
-0.013728 -0.046535 -0.030098
-0.003450 0.042706 -0.034065
0.015625 -0.047891 -0.060312
0.020920 -0.047171 -0.086969
0.019822 -0.005146 0.028720
0.018695 -0.024026 0.031864
0.012425 0.008992 -0.092212
-0.016248 -0.014369 0.082821
-0.021081 -0.009376 -0.016075
0.023024 0.034454 -0.034646
0.023110 -0.003350 -0.013476
0.009646 0.042624 -0.070316
0.024257 0.023621 -0.090937
-0.020643 -0.039478 0.001474
-0.010580 -0.045801 0.023621
-0.019810 0.016935 -0.010336
-0.020575 0.006360 -0.003668
0.025085 0.023947 -0.062024
0.019165 0.035554 0.041483
0.022880 -0.009335 -0.089631
0.021464 0.020009 -0.091620
0.007935 0.042765 -0.025217
-0.020980 0.002731 0.018207
0.006572 -0.045981 0.072233
-0.021801 0.023472 0.079220
0.014491 0.042075 -0.033742
0.012910 -0.016941 -0.092138
-0.021169 0.022823 0.074054
0.012985 -0.045997 0.055854
0.022841 -0.028519 -0.084634
0.015884 -0.043695 0.044240
-0.021244 -0.031925 0.012227
-0.016614 0.038056 -0.025256
0.022694 0.011904 -0.004915
-0.016649 0.033986 -0.041057
-0.021136 -0.007660 -0.000019
0.023781 -0.021116 -0.057229
0.016446 0.042974 0.030296
-0.019192 -0.010206 -0.076746
0.016708 0.001792 0.062267
0.014899 0.043245 0.051917
0.019550 0.003561 0.033812
-0.015346 0.004611 -0.091370
-0.021304 -0.025831 0.007262
-0.017064 -0.046448 -0.056211
0.016582 0.008699 0.067186
-0.018712 0.015480 0.082071
0.016803 0.003217 0.060962
0.020039 -0.047800 -0.083310
0.025575 0.023078 -0.076748
-0.015359 0.000404 -0.091466
-0.018723 -0.038200 -0.055427
-0.021057 0.016051 0.071702
0.020276 -0.001442 0.025227
0.025238 0.011240 -0.080492
-0.019674 0.018757 -0.010079
-0.007311 0.043662 0.003086
0.020419 0.016424 0.025182
-0.014500 -0.025135 -0.091744
0.024216 0.037563 -0.068656
-0.020403 -0.001390 0.047812
-0.019042 0.023667 -0.016082
-0.013283 0.042498 -0.039415
-0.021279 -0.027529 0.021243
0.016888 -0.000661 0.059929
-0.006356 -0.046463 0.003041
-0.020928 -0.037738 0.009909
-0.017540 -0.045453 0.060009
-0.020448 -0.045145 0.031111
-0.005769 -0.046445 0.005509
0.011305 -0.039982 -0.091233
0.018272 -0.005556 0.043996
-0.020987 0.024548 0.072888
-0.020763 -0.003339 0.058831
-0.022129 -0.011357 0.069429
0.012274 0.042937 0.012566
-0.012525 -0.045897 0.013026
-0.011635 -0.047425 -0.083976
0.018392 0.042429 -0.008510
-0.019422 -0.034686 -0.045635
-0.021390 0.027549 0.080545
-0.015655 0.041135 -0.032303
-0.018767 -0.009281 -0.081205
0.015496 -0.045193 0.043916
-0.020784 -0.001900 -0.018961
-0.017841 0.039023 0.006527
-0.007497 0.043391 -0.022342
-0.022928 -0.020769 0.080860
-0.017196 -0.016069 0.082746
-0.019681 0.021496 0.005216
0.024216 -0.015737 -0.054901
-0.012788 0.045282 0.066320
-0.013959 0.043748 0.001088
0.001192 -0.047077 -0.009739
0.014503 -0.038401 0.081355
-0.018566 -0.032176 -0.078704
0.016419 -0.036843 0.047790
-0.001561 0.044152 0.051218
-0.022416 0.002714 0.079957
0.017472 0.033719 0.064017
0.022913 -0.029951 -0.082620
-0.013081 0.040348 -0.080848
-0.011941 0.045254 0.077456
0.015843 0.040736 -0.091143
0.022375 -0.012888 -0.008826
0.024157 0.011853 -0.089620
-0.018999 -0.025044 -0.078040
0.012845 -0.046159 0.043262
0.017905 0.035345 0.081130
-0.012819 -0.045831 0.017920
0.019535 0.002011 0.033959
-0.020093 0.015207 0.002855
-0.019954 0.015270 0.058158
0.016247 0.042169 -0.078338
0.006879 0.043543 0.037711
0.017724 -0.010763 0.048508
0.022465 0.031072 -0.015726
0.000117 -0.013205 0.083482
-0.022145 -0.016017 0.067104
-0.019258 0.028274 0.021601
-0.006211 0.009790 0.082920
0.019359 0.020105 0.039062
0.021798 -0.022849 -0.012571
0.014922 0.042921 0.027609
-0.020495 0.007042 -0.008286
0.005708 0.029583 0.083040
-0.009277 -0.045779 0.035868
-0.010227 0.043375 -0.018320
0.019213 0.037847 0.039524
0.003956 0.043002 -0.024102
-0.014481 -0.041660 -0.091898
-0.015439 0.044805 0.045575
-0.015164 0.041570 -0.037237
0.025094 0.023007 -0.060753
0.022989 -0.027145 -0.053510
-0.017616 0.039660 0.003320
-0.020708 0.025213 0.081143
0.020925 -0.029547 -0.012680
0.019560 -0.024839 0.019525
-0.020237 0.013279 0.020479
0.019532 -0.047201 -0.063456
-0.015576 0.021869 -0.090862
0.007131 0.043523 0.043260
0.015348 0.025332 -0.091899
-0.006135 0.042539 -0.062462
0.018324 0.025681 0.049188
0.006557 0.032416 -0.091722
-0.015611 -0.047010 -0.079760
0.006719 -0.045980 0.071561
-0.016413 -0.029294 0.082798
0.017159 -0.035949 0.038137
0.020242 -0.013485 0.020755
0.024994 0.013898 -0.049441
0.017873 0.002462 0.049006
-0.020379 -0.045132 0.030175
-0.019652 0.025978 0.026797
-0.004384 -0.045906 0.047124
0.021702 -0.025933 -0.018169
0.014814 -0.047884 -0.058042
-0.016829 -0.007648 -0.090238
-0.003567 0.044588 0.060357
0.005622 -0.046809 0.006253
0.016876 0.010178 0.061296
-0.000942 0.043662 0.015711
0.020381 -0.047907 -0.089513
-0.007939 -0.045944 0.023166
0.007277 -0.045992 0.056765
0.019454 0.036351 0.036103
-0.021099 -0.027883 0.000668
0.016902 -0.045488 0.012323
0.011655 -0.047455 -0.028661
-0.019092 0.044171 0.065687
0.021615 0.041414 -0.053472
0.013016 0.042885 0.014320
-0.008676 -0.046356 0.001491
-0.020420 0.015334 0.017915
-0.023678 -0.038875 0.081169
-0.012597 0.044622 0.045563
0.013309 -0.035350 0.082722
0.018179 -0.046209 -0.023746
0.019573 0.013985 0.034940
-0.017476 -0.043438 -0.073790
0.021075 -0.026922 -0.008989
-0.019718 0.024935 0.026412
-0.001350 -0.045949 0.069898
0.017920 -0.046974 -0.034122
-0.018649 0.042775 0.044525
0.024815 -0.004554 -0.051608
-0.016380 -0.046515 -0.081573
0.018075 0.039107 0.059913
0.015338 -0.037691 0.079515
0.023082 -0.005046 -0.013682
0.004443 0.042053 -0.039738
-0.021233 -0.022617 0.000448
0.020413 -0.046473 -0.069625
0.012918 -0.045676 0.076409
0.022715 0.040589 -0.042929
0.018213 0.042694 0.051299
-0.013677 0.038043 -0.086549
-0.021247 -0.016171 0.022820
-0.019980 -0.045225 0.008464
-0.015041 0.041609 -0.038811
0.009329 -0.046175 0.040529
-0.020013 -0.039119 -0.018853
0.018875 0.042269 0.042288
-0.021062 -0.006650 -0.013473
-0.020343 0.014229 0.011753
-0.020424 0.010089 0.002677
-0.020865 -0.004498 0.034149
-0.019555 -0.027872 -0.058162
-0.020408 0.009526 -0.002282
0.017756 0.041515 0.080543
-0.020938 -0.029358 0.082366
-0.006189 -0.047847 -0.081979
0.016299 -0.047224 -0.023746
0.003714 -0.045931 0.053158
-0.020956 -0.008472 -0.023548
0.021762 0.027831 0.001115
-0.020384 0.004136 0.037674
-0.019799 0.023282 0.024761
-0.016653 -0.045674 0.010282
0.019372 -0.045022 -0.039915
-0.015587 0.027771 -0.088223
0.009846 -0.047355 -0.020398
-0.004457 0.042371 -0.040300
0.019190 0.038848 0.040278
-0.020968 -0.009404 0.054635
0.020170 -0.046470 -0.064856
-0.022956 -0.033210 0.072564
-0.019803 -0.034881 -0.033607
0.022166 0.041170 -0.038521
-0.014767 0.039599 -0.058388
-0.021053 0.010643 0.068261
-0.019713 0.007583 -0.048968
0.022106 0.041386 -0.076854
0.021674 -0.021558 -0.008230
-0.020581 0.004551 0.021870
0.016892 -0.048361 -0.087455
-0.018558 0.043054 0.044714
0.014312 -0.044793 0.071498
-0.016677 -0.046625 -0.067234
-0.022981 -0.039464 0.071656
-0.001792 -0.045875 0.054409
0.024286 0.040332 -0.087784
-0.021444 -0.027216 0.029478
-0.018357 -0.042233 -0.053991
0.017418 -0.014732 0.050872
-0.021429 0.021563 0.076425
0.020390 0.041028 0.013878
-0.019000 0.024016 -0.016131
0.002697 0.043293 -0.004961
-0.016277 0.029777 -0.070080
0.022403 -0.036627 -0.077167
0.020938 -0.042686 -0.063719
0.007024 -0.045966 0.063984
-0.020764 -0.002788 -0.022761
0.013845 0.041663 -0.050910
0.016209 -0.043281 0.038822
-0.020928 -0.001389 -0.002018
-0.018272 0.008828 0.082310
0.022209 -0.031443 -0.088815
0.024082 -0.003657 -0.031730
0.023310 0.011681 -0.091104
-0.020324 -0.041121 -0.004485
-0.011777 0.043524 -0.010789
-0.021535 -0.021001 0.018910
-0.006778 0.043686 0.006617
-0.020061 0.005882 0.048007
0.012330 0.041820 -0.053622
0.003817 0.043893 0.055560
0.017183 -0.009266 0.055232
0.017136 -0.031944 0.043908
0.003182 -0.047274 -0.090862
-0.018211 0.032590 -0.005451
-0.019820 -0.001580 -0.060952
-0.014339 -0.045643 0.042851
0.011731 -0.045862 0.076339
-0.013876 0.038954 -0.076555
0.008876 -0.046110 0.046726
-0.018373 0.031403 -0.005477
-0.020489 -0.026422 -0.031925
-0.019552 -0.001383 -0.067323
-0.020812 0.001257 0.026543
-0.019748 -0.045389 0.012246
0.000126 0.042599 -0.033986
0.017827 0.027297 0.055629
0.018804 -0.028758 0.024196
-0.015818 0.041676 -0.024320
-0.002792 0.043524 -0.085964
-0.013188 0.039715 -0.084164
0.022910 0.040712 -0.050771
0.018372 0.035279 0.051909
-0.015824 -0.011409 0.082821
-0.009110 0.045184 0.067656
0.001069 0.043846 0.041094
-0.007316 0.042964 -0.029531
0.022672 -0.016721 -0.018142
-0.004999 0.044985 0.079225
0.019269 0.033232 0.039380
-0.021291 -0.032199 0.016052
-0.017786 -0.038931 -0.084557
0.019142 -0.015708 0.032235
0.017252 0.041693 -0.058439
0.019791 0.041269 0.027258
-0.021306 -0.016659 0.004381
0.017660 0.025493 0.079557
-0.009557 0.009210 0.082850
-0.020369 0.014545 0.016645
-0.002543 -0.046122 0.023459
-0.016898 -0.045489 0.021285
-0.021275 -0.010726 0.081852
-0.020527 0.001164 0.036641
0.025411 0.021043 -0.068240
0.020829 -0.017779 0.009168
-0.019152 0.039404 0.061930
-0.015044 -0.047192 -0.089123
-0.015892 0.026504 -0.087338
-0.017930 -0.046012 -0.020013
-0.021572 -0.034021 0.041105
-0.021926 -0.011732 0.065944
-0.020846 -0.002798 -0.018176
-0.015034 0.033862 -0.080658
0.020407 0.040797 0.014298
-0.021477 -0.028176 0.027855
0.017187 -0.014096 -0.091991
0.019161 0.042247 0.035284
0.025243 0.033480 -0.084047
-0.000876 -0.046337 0.017767
0.015949 0.043699 0.070728
-0.021157 -0.005274 0.011459
0.016094 -0.044683 0.036195
0.007676 0.043870 0.062183
-0.004371 -0.047975 -0.081633
-0.020449 -0.038098 -0.007409
-0.009881 0.043554 -0.009332
-0.018803 0.005184 -0.075959
0.011992 -0.012092 0.083432
0.017305 -0.036497 0.034354
0.016950 0.016951 0.077293
-0.011955 -0.046408 -0.012860
-0.016410 0.035318 -0.041295
-0.014662 0.037136 -0.070089
-0.003478 0.023685 0.082472
0.001333 0.043345 -0.005318
0.016677 -0.037515 0.042831
0.018333 0.026929 0.049276
-0.001513 0.044843 0.071283
0.018731 -0.045116 -0.025905
0.011343 -0.046413 0.022092
0.018752 -0.029075 0.024469
0.016649 0.001350 0.081815
0.014709 0.044212 0.078737
-0.021624 -0.007214 0.081660
0.006740 0.043549 0.043947
0.015677 0.042578 -0.021033
0.018707 0.000450 0.040940
-0.013281 0.044431 0.040609
-0.019950 0.011150 -0.024927
0.017653 0.038792 0.065559
0.006530 -0.046528 0.018961
0.002784 0.043223 -0.080677
-0.021292 -0.014655 0.004639
-0.018405 -0.042306 -0.052614
0.019186 0.005065 0.037396
-0.017643 -0.046148 -0.047157
-0.020010 0.019153 0.010922
0.017832 0.022755 0.081009
-0.018308 0.035141 0.006093
0.023143 0.000392 -0.012135
0.005143 0.042334 -0.058057
-0.012188 -0.047399 -0.087679
0.024963 0.014337 -0.049906
-0.000907 -0.046655 0.005810
-0.019869 -0.002656 0.082120
-0.012786 -0.028291 -0.092248
0.017129 -0.045386 0.008706
0.016950 0.012433 0.061172
-0.015344 -0.046546 -0.041531
0.009144 0.043436 0.035539
-0.017258 0.043301 0.023945
0.005116 0.043638 0.036426
0.020938 0.041694 -0.014927
-0.020502 0.008812 0.027340
-0.022107 -0.043367 0.055599
-0.015847 0.027254 -0.089645
0.012816 -0.019813 -0.092100
0.008930 -0.046416 0.021177
-0.012487 0.045381 0.061723
0.023016 -0.013246 -0.019945
-0.018490 -0.027129 -0.083939
-0.020552 0.006681 -0.004760
0.008765 -0.007816 0.083519
-0.003836 -0.046501 0.007307
0.023506 0.010641 -0.017355
-0.020935 -0.032496 0.001543
0.003225 0.043226 -0.080830
-0.015619 0.041083 -0.033460
0.018015 0.035996 0.080674
0.017871 0.020817 0.053113
-0.018546 -0.045416 0.020789
-0.020195 0.018857 0.017152
-0.014451 0.026919 -0.091109
-0.019365 -0.001001 -0.070542
-0.002055 -0.045930 0.050889
-0.020745 -0.032852 -0.008771
-0.013162 -0.046910 -0.051735
0.016703 -0.041549 0.033253
0.017194 0.022627 -0.091875
0.007862 0.041806 -0.049593
0.016165 0.041526 -0.047449
-0.018421 0.028170 -0.018474
-0.009930 0.045206 0.069784
0.020108 -0.040283 -0.034354
-0.017285 -0.046101 -0.062064
-0.019434 0.020166 0.052492
0.018126 0.041816 -0.068344
-0.019450 0.002766 -0.065324
0.000158 0.003239 0.083298
0.017560 0.018808 0.080207
0.019443 0.004781 -0.091858
-0.008001 -0.046399 0.001023
-0.010710 0.042506 -0.063169
0.019941 -0.022422 0.017216
-0.017993 0.031237 -0.018126
0.019225 0.039867 0.038760
0.019299 -0.046051 -0.043995
0.021233 0.041726 -0.027861
-0.018030 0.021962 -0.056054
-0.018879 0.033963 0.018480
-0.023383 -0.031382 0.078908
-0.009262 -0.047592 -0.078847
-0.007150 -0.009537 0.083180
0.019094 0.038596 0.043179
0.017421 -0.016425 0.050409
0.017253 -0.037545 0.033289
0.016594 -0.030106 0.053465
-0.009662 0.042479 -0.051965
-0.020285 0.010351 -0.007340
-0.021009 -0.037479 0.011637
-0.019300 -0.045524 0.000989
0.019143 -0.028157 0.021352
-0.019179 -0.045549 0.004411
0.025087 0.019416 -0.056927
0.019137 0.012403 0.039062
-0.004304 -0.046393 0.010857
0.019761 0.041493 -0.049784
-0.021423 -0.023799 0.013074
0.012296 -0.046094 0.050963
-0.020973 -0.009584 -0.024702
0.015505 0.042595 -0.010172
-0.008013 0.045142 0.072343
-0.014829 0.044113 0.017536
-0.020304 0.012184 0.061931
-0.002054 0.044057 0.038908
0.023636 -0.021472 -0.053743
-0.017432 0.045243 0.067579
0.021324 -0.022407 -0.090899
-0.020224 0.011223 -0.009985
-0.004406 0.042258 -0.048113
0.005794 -0.046169 0.080514
0.017675 -0.034852 0.032168
-0.008758 0.012745 0.082787
0.023240 -0.001081 -0.014247
-0.019445 -0.029890 -0.056722
0.018672 0.031708 0.047381
-0.012244 0.045236 0.067853
0.022226 -0.016850 -0.010604
-0.019154 0.030168 0.047341
-0.012189 -0.046857 -0.041898
0.003892 -0.046483 0.018762
0.022611 0.025921 -0.011399
0.017148 -0.027773 0.047709
-0.020953 -0.000737 0.001911
0.021778 -0.022675 -0.011902
-0.021333 -0.017698 0.030784
-0.011320 0.045094 0.056617
0.010843 0.043103 0.022890
0.005399 0.043423 0.022953
-0.021326 -0.016815 0.008062
0.000030 -0.046003 0.049353
-0.003469 -0.047832 -0.067550
0.019485 0.041330 0.034112
-0.018994 -0.041661 -0.038731
0.020408 -0.042332 -0.049919
-0.003246 0.042890 -0.076831
-0.016796 0.042867 0.008552
-0.002611 0.042427 -0.090322
0.019396 0.022046 0.038622
0.020615 -0.011558 0.016514
0.023829 -0.007535 -0.083834
0.019755 0.016642 0.033282
-0.019556 0.027565 0.017837
-0.022258 -0.008122 0.072993
0.018253 -0.036102 0.020036
0.015323 0.043255 0.057807
-0.019998 -0.045223 0.026732
0.016545 0.011658 0.066411
0.024096 -0.019461 -0.069768
0.018860 -0.042276 -0.016558
0.002261 0.043571 0.023054
0.016467 -0.040756 0.041123
0.002919 0.043485 0.021773
-0.010155 0.031887 -0.091501
0.020412 0.019502 0.025907
0.024635 -0.010468 -0.058023
0.025010 0.001556 -0.049802
-0.008445 -0.045261 0.080476
-0.020066 0.006560 -0.035715
0.012693 0.042001 0.082674
-0.021847 -0.026965 0.082034
-0.011664 0.043626 -0.001930
0.023683 -0.010706 -0.084187
0.014539 -0.023210 0.083403
-0.017328 -0.045068 -0.071093
-0.018182 0.042808 0.031001
0.009391 -0.014572 0.083542
0.012095 0.041973 -0.057107
0.019581 -0.045541 -0.046744
-0.005396 -0.045699 0.078494
-0.012402 0.043340 -0.020388
-0.010643 0.043378 -0.017876
-0.008134 0.042514 -0.057619
0.023019 0.003651 -0.090893
0.011024 -0.047475 -0.028454
0.020411 0.040071 0.016172
0.009710 0.043932 0.068991
-0.014596 -0.045686 0.043234
0.023853 -0.012250 -0.082000
-0.020269 0.015294 0.025023
-0.018439 0.018014 0.082100
-0.002746 0.042445 -0.056906
-0.022454 -0.044291 0.076992
0.022020 -0.017078 -0.007142
-0.016476 -0.046605 -0.076203
0.006599 -0.047993 -0.050093
0.024738 0.040301 -0.089763
0.014035 -0.045823 0.055881
0.018276 -0.010616 0.042593
0.016895 0.005992 0.081846
0.007960 -0.032647 -0.091768
-0.019060 0.025944 -0.004970
0.023131 0.032105 -0.032287
0.023885 -0.006084 -0.029374
-0.020773 0.006834 0.017084
-0.005612 0.042750 -0.076857
0.023213 -0.007924 -0.017893
-0.018969 0.027310 -0.000198
0.021094 -0.027147 -0.009686
0.007704 0.043020 -0.017446
0.020279 0.041904 -0.031189
0.015195 -0.042546 0.060443
-0.019990 -0.019962 -0.056554
0.012467 0.042696 -0.021658
0.019088 0.013205 0.039509
-0.019978 -0.031440 -0.037376
-0.021191 -0.032975 0.021848
-0.013616 0.045195 0.070931
-0.000944 -0.045931 0.052224
0.002624 0.043305 -0.002598
-0.021704 0.002228 0.071416
-0.021160 -0.009452 -0.011562
-0.008014 -0.047420 -0.054462
-0.015283 0.044542 0.040279
0.009335 0.042522 0.082822
0.010287 0.041930 -0.054241
-0.011112 -0.045709 0.043802
-0.019959 0.019248 0.010378
0.017636 -0.031841 0.036783
0.020558 0.021724 0.023458
0.013077 0.041805 -0.054058
-0.006278 -0.038853 -0.091838
0.018226 0.014394 0.047754
0.016621 -0.039440 0.041385
0.024147 0.037544 -0.066782
-0.017669 -0.043079 -0.068709
0.006283 -0.048119 -0.088515
-0.019699 0.002904 -0.059665
0.017044 -0.047309 -0.034172
-0.020556 -0.037309 -0.004437
0.010450 0.044188 0.076029
0.014868 0.042424 -0.024299
-0.018451 0.018617 -0.056648
0.005218 -0.046130 0.044192
-0.015040 0.041845 -0.034722
-0.008777 0.043770 0.009746
-0.008687 0.042483 -0.054747
-0.019792 -0.029351 0.082657
0.023938 -0.017125 -0.049654
0.019576 -0.046657 -0.055625
-0.017343 -0.030985 -0.090831
-0.020981 -0.002698 -0.000703
-0.001555 0.043696 0.019761
0.001766 0.041981 -0.046999
-0.022720 -0.021738 0.073654
0.013439 0.042715 -0.000236
0.017635 0.038177 0.065264
-0.019799 0.021069 0.061400
-0.012549 0.043846 0.009995
0.017427 0.014250 -0.091921
-0.022910 -0.032294 0.072018
-0.020847 -0.032552 -0.003658
-0.001650 -0.047517 -0.035482
0.018503 0.041544 0.056070
0.017073 0.026098 0.078517
-0.013327 0.045218 0.073865
-0.019877 0.016268 -0.009805
0.017662 -0.004480 0.050797
-0.020737 -0.004580 0.054335
0.007608 -0.047950 -0.047331
0.005323 0.043519 0.032338
-0.016263 0.006422 -0.090674
-0.018194 -0.036895 -0.075142
-0.007518 0.043984 0.027313
-0.021097 -0.044834 0.038539
-0.002514 0.042390 -0.054565
0.013953 0.043190 0.044107
-0.017311 0.032214 -0.031722
-0.010277 -0.044455 0.081823
0.022060 -0.020323 -0.012088
-0.013738 -0.046776 -0.046415
0.020339 0.008427 0.026534
0.019972 -0.024194 0.014427
-0.016186 0.041107 -0.021904
0.013182 -0.047289 -0.023374
-0.020774 -0.027631 -0.019880
0.007580 0.042968 -0.020843
0.011154 -0.046938 0.000087
0.023462 -0.023806 -0.056905
0.006177 -0.046006 0.053587
0.005743 -0.047612 -0.030640
-0.000508 0.043584 0.021371
-0.003005 0.044055 0.044024
0.016435 -0.046216 0.008693
0.017582 0.007017 0.053129
0.015059 -0.034024 0.079745
0.024057 -0.002154 -0.030105
0.022956 -0.020753 -0.031213
-0.020531 -0.021886 -0.036583
0.017345 0.025175 -0.091815
-0.008830 0.043982 0.024861
0.009794 -0.029615 -0.091785
0.017680 0.041880 -0.089231
0.016757 0.004824 0.081968
-0.010924 -0.045705 0.044862
0.025028 -0.003545 -0.059888
0.025019 0.012394 -0.049624
-0.020724 -0.039711 0.004307
0.014483 0.026688 -0.091891
0.023778 -0.005949 -0.026876
-0.021754 -0.037256 0.049705
-0.013171 0.004670 -0.091633
0.015083 -0.043542 0.061178
-0.020762 -0.034052 -0.002940
0.016339 0.043000 0.031940
0.021935 0.035673 -0.012710
0.022938 -0.012259 -0.017776
-0.019385 -0.010759 -0.074000
0.013055 -0.046092 0.048012
0.020240 0.013985 0.027762
0.018093 0.017692 0.050307
0.022996 -0.028676 -0.082605
-0.001091 -0.047631 -0.039149
-0.021404 -0.024281 0.012476
0.021181 0.041562 -0.039986
0.019261 -0.023264 0.025020
0.025223 0.012666 -0.055433
-0.021232 -0.027625 0.008153
-0.021281 0.022521 0.075036
0.000238 -0.045887 0.080566
-0.021202 0.023360 0.074702
-0.008382 0.043993 0.026062
-0.012419 -0.047004 -0.052635
-0.008882 0.042497 -0.065340
-0.002472 -0.046189 0.020092
0.017383 -0.021959 0.048236
-0.020837 -0.038587 0.082523
0.009752 0.033835 0.083000
-0.016767 0.044200 0.041175
-0.014073 -0.047149 -0.079541
-0.016312 0.032820 -0.054042
0.017427 0.016688 0.080295
-0.020404 0.010615 0.060806
0.025220 0.014474 -0.056653
0.010081 0.043588 0.058809
-0.013865 0.044586 0.043840
0.020918 0.041599 -0.008088
-0.009861 0.042432 -0.070732
-0.020542 0.008007 0.027272
0.024220 -0.004576 -0.035413
0.017247 0.029621 0.064094
0.025141 0.038356 -0.087933
0.018710 0.040853 0.050594
-0.014897 0.045233 0.070855
-0.003544 -0.045814 0.078778
-0.021192 -0.029982 0.006900
-0.021250 -0.018359 -0.000028
0.002729 -0.047335 -0.022507
0.017352 -0.048303 -0.083560
-0.008950 -0.046407 -0.003146
-0.020066 0.013588 -0.006988
-0.015870 0.036308 -0.048521
0.020988 0.041068 -0.002645
0.020140 -0.006220 0.025725
-0.019186 0.043263 0.063862
-0.018531 -0.034608 -0.071546
0.002288 -0.047039 -0.006470
-0.012005 0.041370 -0.090381
-0.007803 0.044196 -0.088441
0.018446 -0.000503 0.042564
0.019330 -0.047760 -0.072943
0.019836 -0.026092 0.014000
-0.020340 0.014155 0.063502
-0.007074 0.043594 -0.002541
0.021592 -0.038913 -0.062873
-0.009129 0.042458 -0.051250
-0.020535 -0.039603 0.082588
-0.017937 -0.045511 0.019205
0.024978 0.002683 -0.048260
0.012973 -0.016105 0.083416
0.020677 -0.008974 0.017472
0.008363 0.032248 -0.091746
-0.021196 0.000900 0.064964
-0.001004 0.042167 -0.041845
-0.014562 0.036613 -0.073937
0.020534 0.018734 0.024107
-0.019539 0.017098 -0.021581
0.023803 -0.017760 -0.080064
0.012980 -0.046910 0.000674
0.017968 0.041583 -0.053442
0.007639 -0.022461 -0.092134
-0.021224 -0.016901 -0.009433
0.011739 0.042830 -0.082246
-0.023507 -0.033129 0.080276
0.009609 -0.048091 -0.069564
-0.016868 -0.045395 0.066472
0.005588 0.042678 -0.029698
-0.021250 -0.010180 0.011045
0.000679 0.043362 -0.008451
-0.018946 -0.045654 -0.003120
-0.021147 -0.042074 0.019206
-0.022441 0.003487 0.079502
0.014884 0.042638 0.005642
0.019419 -0.016120 0.028573
-0.019214 0.007286 -0.065777
0.017715 -0.012111 0.048207
-0.019783 -0.010665 -0.066007
0.007789 -0.046001 0.057140
-0.020855 -0.010942 -0.031773
-0.018522 -0.042467 -0.049184
0.023264 0.013253 -0.013963
0.018414 -0.010739 0.041129
-0.018539 -0.027982 -0.083347
0.020454 -0.008897 0.020534
0.016617 0.028211 0.070937
-0.009087 -0.045772 0.053842
0.012585 -0.047483 -0.032042
0.011142 -0.013277 -0.092249
0.019217 0.001914 -0.091892
-0.019012 0.020748 0.081813
0.016627 0.000814 0.078241
0.003924 -0.045941 0.055576
-0.019665 -0.028050 -0.053951
0.023926 -0.018354 -0.053428
-0.009041 -0.046228 0.007265
0.001489 -0.004893 0.083447
-0.020616 -0.038381 -0.000516
0.018226 0.040001 0.058367
0.019510 -0.000966 0.033803
-0.005220 -0.046652 -0.003418
-0.020790 -0.011345 -0.033429
0.015973 -0.034708 0.057881
-0.018258 -0.045806 -0.008334
0.017228 0.024139 0.081435
0.015486 -0.009868 0.083020
0.022804 0.023356 -0.091477
-0.018293 -0.036124 -0.074542
0.004578 -0.048317 -0.077971
-0.008052 0.045001 0.068981
0.022135 -0.038254 -0.074988
-0.011860 0.045241 0.066596
-0.000846 0.042163 -0.049937
-0.010402 0.043684 0.000541
-0.003202 0.044031 0.037105
-0.007073 -0.046188 0.014714
0.019834 -0.021234 0.019593
0.024418 0.017367 -0.039038
-0.011209 0.045232 0.066232
0.023525 -0.017829 -0.082550
0.020741 0.017133 0.021214
0.022874 0.020744 -0.091434
-0.019943 0.011508 -0.023673
0.024459 0.022345 -0.045079
-0.017153 0.041373 -0.000747
-0.021331 -0.010833 0.061850
-0.022682 -0.020271 0.072610
-0.022261 -0.038445 0.060526
0.018275 0.028342 0.051166
-0.019013 0.016185 -0.046938
0.000250 0.044427 0.062369
0.011340 -0.045969 0.078745
0.023893 0.029601 -0.091319
-0.015608 -0.046156 -0.016221
0.010906 -0.045922 0.063894
0.022841 0.037887 -0.038022
0.016879 -0.046982 -0.019156
0.000321 -0.046539 0.011900
0.025053 0.040026 -0.090112
0.006706 0.043108 -0.009111
0.024881 0.018330 -0.050471
-0.020893 0.004669 0.064448
0.016392 0.042065 -0.070491
0.003678 -0.046993 -0.003634
-0.006004 -0.045836 0.069441
0.007748 -0.042088 0.082978
-0.013216 0.044527 0.037982
-0.019450 0.028950 0.026580
-0.020610 0.003627 0.022167
-0.020200 0.005257 -0.032636
-0.006994 0.044978 0.060676
-0.020141 -0.014070 -0.056271
0.022166 -0.015316 -0.008266
-0.020911 -0.000523 0.002552
-0.018548 -0.041305 -0.052020
0.018243 -0.006909 0.043659
-0.018559 -0.020357 0.082676
-0.008369 -0.047344 -0.090342
-0.020168 -0.044194 0.081803
0.016301 -0.036672 0.049499
-0.021598 0.003920 0.071057
-0.005608 0.041786 -0.090743
-0.016835 0.042110 -0.001664
0.019617 -0.039360 -0.090792
-0.021374 -0.016313 0.024942
0.002270 -0.045957 0.055880
-0.009350 -0.047575 -0.085138
0.010740 0.042417 -0.030520
-0.018849 0.030752 0.007508
-0.021745 0.002938 0.081215
-0.009371 -0.045831 0.044795
0.010979 0.042794 -0.021828
0.022200 0.041307 -0.052959
-0.004327 -0.046072 0.024130
0.004037 0.043386 0.014748
-0.019431 -0.038575 -0.035308
-0.011690 0.042040 -0.073440
-0.020608 -0.025887 -0.028396
-0.019010 0.035353 0.044708
-0.000759 0.044309 0.059265
-0.019290 0.003879 -0.068641
0.025582 0.017280 -0.071840
0.001463 -0.046063 0.048956
-0.019817 0.029570 0.081269
0.021809 0.041402 -0.068571
-0.020916 0.000116 0.009597
0.015111 -0.047496 -0.034356
-0.020272 -0.028575 -0.033466
-0.018895 -0.008814 -0.080052
0.021358 -0.042612 -0.073750
0.014232 -0.048060 -0.071324
-0.017730 0.007680 -0.085760
-0.020686 0.003962 -0.004191
-0.022166 0.000695 0.076000
-0.021383 -0.018565 0.015295
-0.021646 -0.041180 0.040046
0.004036 0.042268 -0.055843
0.025066 -0.002680 -0.060304
-0.021225 -0.016305 -0.009636
0.025045 0.031776 -0.075135
-0.020591 0.004969 -0.007414
-0.020660 0.004822 -0.001265
0.016869 0.042330 -0.020125
0.020982 -0.013474 0.010767
0.020691 0.015652 0.022510
0.003112 0.043382 0.010582
0.025439 0.021882 -0.070368
0.007450 -0.047603 -0.031292
-0.018410 0.011711 -0.077063
0.000650 -0.046015 0.079450
0.022765 0.037933 -0.036518
-0.014224 0.037534 -0.077054
-0.016932 -0.035214 -0.091380
-0.021411 -0.024217 0.012715
0.020878 -0.006973 0.015677
0.022429 -0.033369 -0.086095
-0.020801 -0.033254 -0.003388
-0.004941 0.027194 0.082330
0.023902 -0.019856 -0.057112
0.023687 -0.010168 -0.084138
-0.018250 0.014572 -0.075914
-0.019879 -0.044953 -0.005325
0.004121 -0.045957 0.051961
-0.020257 -0.036641 -0.017208
-0.003562 -0.046733 -0.003787
-0.019115 -0.039572 -0.041960
0.025131 0.011125 -0.052292
-0.000584 0.043182 -0.019449
-0.004390 0.042908 -0.080003
-0.006196 0.026121 0.082350
-0.020816 0.001055 0.004605
-0.021130 -0.016970 0.050470
0.020022 0.039492 0.023633
-0.013704 -0.041431 0.082608
-0.020652 -0.017275 -0.037438
-0.019221 0.009202 -0.061210
0.009486 0.043020 0.007826
0.008443 0.028062 0.083109
-0.020972 -0.002584 -0.001470
-0.008620 -0.046369 0.000854
-0.023532 -0.043498 0.080701
-0.017004 0.044631 0.046777
0.017667 -0.047128 -0.035089
-0.019701 0.018068 0.057801
-0.006086 0.044192 0.043384
0.020111 -0.026320 0.008382
-0.020035 -0.014405 0.082326
-0.010084 -0.046485 -0.008716
-0.020023 0.029093 0.081257
-0.010862 0.008613 -0.092066
0.019391 0.017581 0.038321
0.017753 0.003591 0.050200
0.017348 -0.048190 -0.076470
0.024165 0.005563 -0.086653
0.010097 -0.046841 0.005590
-0.010762 0.043752 0.006300
-0.006575 0.043360 -0.022606
0.015095 -0.041946 0.064352
0.018566 -0.015596 0.037833
0.010626 0.042882 -0.079263
-0.020019 -0.030809 -0.037579
-0.007104 -0.047675 -0.073021
0.009053 -0.046014 0.056432
-0.019922 0.013159 0.081597
-0.022940 -0.033111 0.072287
-0.015969 0.044508 0.042278
-0.017853 0.042505 0.022027
0.016601 -0.045169 0.022126
-0.005271 -0.046035 0.022677
-0.001783 0.025555 -0.091806
-0.010100 0.042637 -0.039712
-0.020691 -0.036080 -0.001873
-0.018490 -0.036433 -0.066633
-0.020273 -0.003864 -0.049382
0.024200 0.004655 -0.085957
-0.018951 -0.028862 -0.073512
-0.009122 0.044148 0.081360
0.019626 0.004649 0.031897
-0.018392 -0.019613 -0.085031
0.025327 0.032655 -0.085127
0.015014 -0.047670 -0.044903
0.004680 0.043223 -0.010973
0.018251 0.001338 0.044888
-0.011514 -0.045921 0.015189
0.014461 -0.043316 0.078332
-0.000305 -0.047993 -0.067621
0.016497 0.011008 0.067163
0.002181 0.043643 0.029391
-0.010802 0.043523 -0.010338
0.015901 0.042550 -0.018706
0.010325 0.043525 0.055377
0.019065 0.007479 0.038734
0.020278 0.038496 0.019263
0.008454 -0.023195 0.083589
0.021400 -0.005746 0.009715
-0.010999 -0.025014 -0.092318
0.005360 0.043291 -0.088493
-0.006033 -0.044042 0.082770
-0.020496 -0.022459 -0.037834
0.009396 0.043600 0.058524
-0.019825 -0.025000 -0.055494
0.022889 -0.013636 -0.018099
-0.000048 -0.048082 -0.087644
-0.021320 -0.013605 0.016409
0.010448 0.043010 -0.085009
0.012762 -0.045819 0.067192
0.008845 0.040172 -0.091533
0.024084 0.040169 -0.078326
0.016175 -0.036015 0.052058
-0.019736 0.036723 0.066757
-0.014978 -0.013654 0.082904
0.020359 -0.003903 0.023500
-0.018867 -0.043416 -0.038237
-0.002169 0.002176 0.083170
0.023574 0.003425 -0.018585
-0.019299 -0.045433 -0.012674
-0.004693 -0.047053 -0.020696
0.020040 -0.015622 0.021960
0.017232 -0.015694 0.053077
0.016849 0.002066 0.060384
-0.018028 -0.045593 0.050064
-0.018734 -0.045299 -0.034098
0.023191 -0.025943 -0.054355
0.023729 -0.023592 -0.068000
0.016853 0.034547 0.077674
0.019281 0.031824 0.039091
-0.003775 -0.046861 -0.009512
0.025148 -0.001085 -0.066949
-0.008613 0.014274 -0.092083
0.024505 -0.010376 -0.050279
0.019659 0.039793 0.031398
0.001076 -0.046002 0.077411
0.005795 -0.046904 0.001837
0.014850 0.029859 0.082151
0.025505 0.020893 -0.071227
-0.015119 0.044125 0.019825
-0.020090 0.017855 0.013978
0.019198 0.042140 -0.026523
-0.011591 0.042589 -0.051435
0.013773 -0.047607 -0.038580
-0.019610 0.019517 -0.008233
-0.020850 0.001934 0.061183
0.022813 -0.005542 -0.010169
-0.004242 -0.046255 0.018713
0.008787 -0.048265 -0.088144
-0.023553 -0.034184 0.080343
-0.020742 -0.033256 0.082502
-0.005680 0.044271 0.080582
-0.011753 0.041835 -0.077381
-0.004490 0.043872 -0.087232
0.009257 -0.046106 0.049401
0.007358 0.027558 -0.091914
0.009000 -0.047643 -0.032938
0.016562 0.043478 0.077177
-0.019747 -0.016801 -0.065934
-0.021874 -0.003816 0.071081
-0.015454 0.042051 -0.025413
0.018428 0.040062 0.054603
0.002779 -0.048078 -0.062983
0.018119 0.003578 0.046555
-0.020679 0.009221 0.017339
-0.014065 0.019913 -0.091367
0.016142 -0.045783 0.023826
0.019576 -0.048086 -0.085632
0.019620 0.027736 0.035126
-0.021589 -0.021840 0.018663
0.019911 0.041626 -0.040071
-0.006149 0.043553 -0.003979
0.021319 0.040613 -0.009208
0.007401 0.043333 0.018514
-0.020711 -0.032394 -0.011429
-0.019770 0.021688 0.022167
0.017822 0.016723 0.052419
-0.013625 -0.047088 -0.070260
-0.002899 0.043827 -0.087062
0.019124 0.041505 -0.043038
0.025036 0.031590 -0.074396
0.015574 0.042193 -0.072580
-0.023507 -0.042141 0.078663
-0.018003 0.021927 -0.057353
0.023864 0.039381 -0.064520
-0.020574 -0.003437 0.052649
0.015515 -0.046094 0.027307
-0.008916 0.043508 -0.008859
-0.021224 -0.014939 -0.007478
-0.015824 0.045204 0.053045
0.001152 -0.045985 0.071279
0.014938 -0.045478 0.050537
0.014896 0.037764 -0.091569
0.000952 0.043134 -0.018987
-0.019822 -0.045320 0.008052
0.013317 0.044411 0.079630
-0.011604 0.042508 -0.055156
0.012605 0.023888 -0.091999
-0.020870 -0.033618 0.000813
0.020064 0.040562 0.022467
0.008956 -0.048281 -0.088076
-0.018282 -0.036673 -0.072357
-0.015858 0.042918 -0.003108
-0.017306 0.041154 0.001257
0.017561 0.015314 0.054319
-0.021298 -0.016650 0.009768
-0.019917 0.008862 -0.035830
0.014159 -0.046304 0.031762
-0.019468 -0.014603 -0.072657
0.023003 -0.028255 -0.059422
0.012199 -0.047403 -0.028568
-0.017937 0.018886 -0.072793
0.013461 -0.028086 -0.091721
0.024470 -0.004903 -0.041774
0.023570 0.002525 -0.018741
-0.018481 0.045124 0.077362
0.007977 -0.045308 0.081426
0.016990 0.011823 0.060718
-0.021527 -0.023860 0.055818
0.022085 0.039645 -0.024386
-0.011057 -0.046504 -0.091745
0.021864 -0.023732 -0.015919
-0.007800 0.043813 0.014315
-0.018259 0.042871 0.033174
0.021000 -0.045972 -0.080656
-0.005992 0.043905 0.025143
0.016621 0.007737 0.082202
-0.012683 0.040418 -0.087360
0.015420 -0.009177 0.083064
-0.020802 -0.007044 -0.031356
0.020555 0.022145 0.023197
0.022505 -0.010065 -0.008654
0.004276 -0.046017 0.050187
0.008180 0.041744 -0.048457
0.017724 0.043026 0.052211
-0.018285 -0.045554 0.051237
-0.011063 0.042964 -0.032215
-0.020935 -0.037333 0.009246
-0.008665 -0.047591 -0.075814
-0.020861 -0.007290 -0.027033
0.022405 -0.035867 -0.072178
0.015107 -0.014271 0.083216
-0.008826 0.042506 -0.041712
-0.021090 -0.007887 0.020491
0.015669 0.043242 0.055297
-0.015139 -0.046325 -0.024108
0.023739 -0.006673 -0.084729
-0.019015 0.033787 0.017168
-0.017797 0.017271 -0.081986
0.022457 -0.012989 -0.090268
-0.020554 0.009463 0.023876
0.015004 0.043235 0.054876
-0.006835 -0.045881 0.048530
-0.020564 0.008213 0.005388
-0.015652 -0.046923 -0.068474
-0.021313 -0.039306 0.018994
-0.020600 -0.003356 0.053160
0.009182 -0.010310 0.083525
0.020754 -0.046343 -0.077858
0.024224 -0.000590 -0.032750
-0.018325 0.041114 0.025322
0.020515 0.035823 0.016998
-0.019279 0.041560 0.063356
-0.022721 -0.032409 0.069099
0.017391 0.023780 0.081340
-0.019614 -0.001386 -0.065713
0.000951 0.042582 -0.063125
0.020457 -0.017458 0.014555
-0.018869 0.019205 0.081952
-0.020207 -0.004628 -0.052068
0.018938 0.041624 -0.060769
-0.018302 -0.045597 -0.042881
0.005650 0.043135 -0.000906
-0.006413 0.045089 0.073891
-0.017417 -0.041508 -0.085931
0.023630 0.040823 -0.082569
0.016926 -0.038094 0.037851
0.022778 -0.003057 -0.007931
-0.014014 0.040186 -0.068478
0.010586 0.042590 -0.088943
0.022497 0.041190 -0.054201
0.013826 -0.045985 0.051214
0.017783 0.008933 0.050820
-0.014861 -0.008486 -0.091713
0.019707 0.026028 0.034262
0.019594 0.016690 0.034272
-0.004467 0.043433 -0.013124
0.003559 0.043448 -0.084761
0.024115 -0.002129 -0.031220
-0.021199 -0.028893 0.008596
-0.018448 0.043207 0.041374
-0.012146 -0.045852 0.016751
-0.001956 -0.046816 -0.003836
0.018467 0.042300 0.053972
-0.011148 0.043966 0.015105
0.012574 0.042701 -0.021881
0.017044 -0.025574 0.050115
-0.021160 -0.009475 -0.011195
-0.012825 0.045234 0.075737
-0.020844 -0.007332 -0.028541
-0.005135 -0.047232 -0.032121
0.019281 -0.048041 -0.081357
0.015457 -0.016194 -0.092126
-0.011861 0.021148 0.082370
0.018907 -0.020030 0.032160
0.022152 0.007892 -0.091435
-0.013042 0.043028 -0.030149
-0.020963 -0.042448 0.016860
-0.011008 0.042364 -0.083471
0.023186 -0.016939 -0.085526
0.020054 -0.003923 0.027296
-0.020059 0.019244 0.018720
0.018201 0.034577 0.053952
0.003350 -0.046029 0.049909
0.017610 -0.043370 0.009077
0.008201 -0.046639 0.013316
-0.011199 0.042536 -0.055554
0.017447 0.035122 0.081649
-0.019803 -0.015783 -0.064245
-0.012955 -0.047234 -0.075514
0.017901 -0.004985 0.047625
0.018497 -0.041717 -0.007105
0.022766 -0.014782 -0.017465
0.025313 0.005428 -0.061034
-0.001320 0.030125 0.082363
-0.019064 0.028598 0.008165
-0.003054 0.042427 -0.055688
0.018162 0.021217 0.049899
0.017469 0.029593 0.060199
0.014709 -0.002630 0.083102
0.016701 -0.044852 0.022471
-0.019072 -0.028062 -0.071882
0.021263 0.041510 -0.076650
0.020233 0.040159 0.019771
0.019767 -0.024766 0.016394
-0.016421 -0.003445 0.082680
-0.021205 -0.011677 -0.007871
0.022979 -0.009626 -0.016006
-0.020391 0.011989 0.006299
0.016942 -0.020875 0.055163
-0.021132 -0.005882 0.007798
-0.021777 -0.003438 0.068946
0.010746 -0.019084 0.083531
-0.009851 0.043039 -0.029328
-0.019706 -0.024356 -0.059979
0.017378 0.025695 0.060213
0.017973 0.002962 0.048041
-0.021902 -0.042134 0.082249
0.023910 -0.019092 -0.056322
-0.016915 0.041216 -0.006137
-0.020910 -0.001060 0.003525
0.019012 0.042453 -0.011030
-0.019169 0.032198 0.017429
0.021263 -0.033336 -0.090545
0.018642 -0.041488 -0.009724
0.025416 0.012643 -0.061978
-0.020517 0.002407 0.059580
0.012479 -0.013612 -0.092209
0.016571 -0.046875 -0.010062
0.025233 0.010724 -0.056856
0.017437 -0.003093 0.052632
-0.018507 -0.005342 -0.082379
-0.001651 0.044553 0.063151
0.011692 0.042244 -0.032635
-0.022304 -0.005845 0.075867
-0.013574 0.002100 -0.091635
-0.019556 -0.007189 -0.069870
-0.017908 -0.016468 -0.087141
-0.019707 0.019318 0.059443
0.001243 0.043621 0.019195
-0.019769 0.011419 -0.032725
0.015701 0.000897 0.082856
0.024030 0.040081 -0.075852
0.016788 -0.035058 0.044671
0.013115 0.042811 0.007838
0.020585 0.041255 0.007749
0.001949 0.043332 -0.000845
-0.022669 -0.022227 0.072788
-0.019932 0.015447 -0.007438
0.022490 0.022411 -0.005973
-0.022189 -0.002903 0.074377
0.023660 0.040054 -0.062160
