-0.021051 -0.014816 -0.017008
-0.013136 -0.007626 0.033390
-0.013208 -0.016238 0.033285
0.023219 -0.033873 0.032715
0.026026 0.016844 0.030373
0.005715 0.024768 0.029109
0.016676 -0.037724 0.010344
0.009202 0.037633 -0.014724
0.007328 -0.032302 -0.017148
-0.010299 0.022960 -0.016686
-0.016589 -0.022422 -0.017011
-0.019987 -0.023581 -0.017030
-0.012922 0.030549 -0.016925
0.001095 -0.014147 0.032972
-0.024857 0.015321 0.005219
0.024826 -0.029250 0.005484
-0.001923 -0.027430 0.032030
0.026027 0.036085 0.006681
-0.018890 0.014625 -0.016824
0.018214 -0.017566 -0.016549
0.025120 0.011360 -0.013175
-0.021489 -0.009588 -0.016920
0.014581 -0.018278 0.032944
-0.021086 0.009492 -0.016907
-0.002300 -0.033102 -0.017158
-0.024180 -0.010691 0.033474
-0.017912 -0.029755 -0.017165
-0.024984 0.018424 0.029753
0.016260 0.029037 -0.016628
-0.024936 0.008474 -0.007978
0.004563 0.004384 0.029296
0.006141 -0.026130 -0.016826
-0.016110 -0.006507 0.033488
0.025807 0.013020 0.027066
-0.009823 -0.037973 0.009121
-0.009983 0.033808 0.033045
0.018792 -0.024731 -0.016759
-0.023352 0.037337 0.021167
-0.004393 0.033018 0.032937
-0.011021 0.007177 0.033348
-0.018503 0.036900 0.024776
-0.016962 0.014151 -0.016810
-0.025223 0.029503 0.015501
-0.015546 -0.030132 0.033156
-0.016271 0.017791 -0.016818
0.022879 -0.002091 -0.016382
0.025619 0.004750 0.009132
0.012610 -0.037726 0.007495
-0.017484 0.008779 -0.016862
-0.025373 -0.003708 0.033083
-0.018083 0.033436 0.033344
-0.003192 -0.016725 -0.016702
0.015670 0.015126 -0.016251
-0.001841 0.011040 -0.016473
-0.022181 0.002234 -0.016944
-0.006369 -0.015671 -0.016736
0.015323 0.027963 -0.016598
0.024645 -0.022690 -0.007691
-0.022496 0.019684 -0.016824
0.003050 0.005360 0.030518
0.018476 -0.036251 -0.017087
-0.013404 0.020073 -0.016700
0.022074 -0.006874 -0.016488
-0.025438 -0.009574 0.023961
0.007320 -0.010591 -0.016487
0.025615 0.003601 0.029971
0.003804 0.016224 0.032089
-0.020962 -0.009145 -0.016923
-0.012316 0.021738 -0.016736
0.001168 0.032866 -0.016879
0.014014 -0.026634 -0.016822
-0.020747 0.030017 -0.017132
0.015403 0.035251 -0.016771
0.024656 -0.013219 -0.010830
0.007022 0.023672 -0.016342
0.024413 -0.021934 -0.012161
0.010630 -0.037542 -0.016236
0.021565 0.023242 -0.016504
-0.025409 -0.012634 0.007824
-0.025262 -0.008935 0.010137
0.015634 -0.014152 0.032936
0.005343 0.030229 -0.016695
-0.012142 -0.019587 0.033251
-0.001093 0.029780 -0.016710
0.005271 0.019380 0.021369
0.001318 -0.031660 0.032954
0.022903 -0.031427 -0.016970
-0.016783 -0.011988 0.033408
-0.015077 -0.008690 -0.016820
-0.025322 -0.037552 0.009958
0.024790 0.020107 0.032582
-0.015102 0.007436 -0.016790
-0.025937 -0.029112 0.015560
-0.025463 -0.018539 0.011464
-0.008111 -0.011796 -0.016743
0.025217 0.005720 -0.007430
-0.024876 0.018734 0.004756
0.015070 -0.017117 -0.016538
-0.011433 0.032853 -0.017004
-0.011553 0.013880 -0.016654
0.001889 0.029994 -0.016725
-0.025675 -0.036919 0.011661
-0.024903 0.005831 -0.011485
-0.007145 0.033673 0.032988
0.019060 -0.010208 -0.016528
0.025685 0.017390 -0.000199
-0.017069 -0.008941 -0.016830
0.019593 0.036928 -0.005381
-0.021896 0.031317 0.033446
-0.006192 0.000712 0.021718
0.007313 0.028915 -0.016648
-0.005669 0.033704 -0.016988
0.020810 -0.030311 -0.016925
0.023832 -0.001068 -0.016581
0.024284 -0.026518 -0.014081
-0.024889 0.026773 0.032691
-0.007671 0.029509 -0.016831
-0.006366 -0.015878 -0.016747
-0.015122 0.005479 0.033491
-0.018236 0.005266 0.033501
-0.005219 0.015981 -0.016524
-0.017540 -0.011212 -0.016866
0.001662 0.027870 0.031534
0.009908 -0.033597 0.032907
0.025297 -0.019641 0.029262
0.019644 0.025329 -0.016519
-0.022233 -0.037323 0.033221
0.014958 -0.007370 -0.016438
0.000749 0.027729 0.028640
-0.001501 0.023696 0.021014
0.025543 0.031956 -0.009595
0.024778 0.020978 -0.016628
-0.014477 -0.038238 0.030973
0.013423 -0.027076 -0.016816
0.008428 -0.034780 -0.017158
-0.021203 -0.038206 0.022283
-0.024127 -0.014812 -0.016863
-0.009226 0.036197 0.031683
-0.024961 0.019595 0.014804
0.013184 0.005552 -0.016292
0.006694 -0.025854 0.032923
-0.025178 -0.010577 -0.009366
-0.009841 -0.009328 -0.016739
-0.025010 0.021142 0.019629
-0.020627 -0.013924 -0.016950
0.000464 0.017134 -0.016467
0.007520 -0.020672 0.032893
-0.000237 -0.014684 -0.016595
0.018828 0.014820 -0.016366
-0.000207 0.000520 0.020916
-0.018473 -0.005882 0.033542
-0.019829 -0.006684 -0.016877
-0.002912 0.009353 0.033002
0.018836 0.036586 0.032270
0.017310 -0.037670 0.007368
-0.004473 -0.035310 -0.017149
-0.025203 0.012237 0.023252
0.013444 -0.000645 0.032835
-0.022111 -0.008624 -0.016947
0.021947 0.010888 -0.016363
-0.025830 -0.028147 -0.000459
0.006874 -0.010861 0.032887
-0.024918 0.020769 0.000750
-0.017706 -0.023463 -0.017024
0.024435 -0.033509 -0.016448
0.006714 -0.037615 -0.013843
-0.024953 0.014340 0.010848
-0.024702 0.037893 0.009800
0.025114 -0.011183 0.000310
0.025027 0.008922 -0.011829
-0.005135 0.030081 -0.016818
-0.006335 -0.028401 0.033067
0.012596 -0.017153 -0.016517
0.014723 -0.014389 -0.016487
-0.011859 0.030166 -0.016905
0.002090 -0.033838 -0.017189
-0.006332 -0.023486 -0.016873
0.005676 0.008075 -0.016310
-0.019997 -0.004043 0.033524
-0.023030 -0.034043 -0.017125
0.025767 0.017205 0.003312
0.005670 0.011207 0.032807
-0.001132 -0.015541 0.028122
0.001859 -0.018377 -0.016604
0.004247 -0.036058 -0.017235
0.020078 -0.002407 -0.016358
0.025727 0.004559 0.016359
0.012339 -0.018625 -0.016547
0.022248 0.002511 -0.016402
0.022789 0.021199 -0.016430
0.015088 -0.036677 -0.017053
-0.006751 -0.011296 -0.016684
0.023892 -0.037566 -0.012414
-0.004840 0.031500 -0.016915
-0.010558 0.018191 -0.016617
0.025464 0.032508 -0.012902
0.013983 -0.000066 -0.016352
-0.013781 -0.019570 -0.016952
0.004289 0.015653 0.032701
-0.014537 -0.037705 -0.008821
-0.012242 0.017101 0.033301
0.024718 0.034823 0.032615
-0.010724 -0.007212 -0.016737
0.011193 -0.013521 0.032932
0.010503 0.000029 -0.016345
0.013882 0.037179 -0.003985
-0.017336 0.035389 -0.017089
-0.003746 -0.031745 0.032985
-0.015502 -0.012049 -0.016856
0.025280 0.020575 -0.013165
0.009403 -0.036489 -0.017159
0.006762 0.023626 -0.016370
-0.013381 -0.023416 -0.016966
0.013465 -0.034389 0.032894
-0.025531 -0.030308 0.032399
0.001429 -0.024858 -0.016814
-0.025067 0.034004 -0.015772
-0.025652 -0.022369 0.018244
0.025567 -0.004323 0.016727
-0.008778 0.034732 0.033118
0.002365 -0.003554 0.020746
-0.009651 0.031759 -0.016925
-0.003889 0.016695 -0.016480
-0.025359 -0.019459 -0.011374
-0.015486 -0.026067 -0.017071
0.020509 0.004285 -0.016362
-0.021296 -0.023298 0.033182
0.025068 -0.001320 -0.005990
0.005610 0.028861 -0.016613
0.021226 -0.017476 -0.016655
0.026053 0.028866 0.028541
-0.010254 0.022337 -0.016655
0.011733 0.004329 0.032827
0.004807 -0.013160 -0.016493
0.005092 0.025092 -0.016426
0.008879 -0.004648 0.032825
-0.015113 -0.022161 -0.017002
0.003498 -0.025391 0.021601
-0.024862 0.021273 -0.010342
-0.014433 0.025931 -0.016832
-0.006994 0.007928 -0.016585
0.010078 -0.037608 -0.004102
-0.020985 0.019626 -0.016879
-0.023679 0.025741 -0.016728
0.018874 -0.017467 0.032913
0.009424 -0.000659 -0.016356
0.014475 -0.006736 0.032875
-0.005972 -0.024456 0.032564
0.024247 0.003482 -0.016607
-0.019364 0.028037 0.033417
0.022460 -0.024891 -0.016816
0.019498 -0.025286 -0.016747
-0.007034 -0.028957 -0.017039
-0.006141 0.021321 -0.016585
0.017670 -0.002141 -0.016373
-0.018905 0.029926 0.033392
-0.016769 -0.011358 -0.016879
-0.025405 -0.016053 0.011221
-0.022616 -0.023436 0.033125
-0.025338 -0.014613 -0.008457
-0.000023 0.006209 -0.016437
-0.016413 -0.034050 -0.017148
0.020217 0.027748 -0.016611
-0.007319 -0.017547 0.033190
-0.011206 0.013633 -0.016638
-0.013222 -0.030084 -0.017157
0.018838 0.003835 -0.016345
0.007953 -0.037786 0.008461
0.025576 -0.001976 0.025557
0.000965 0.021604 -0.016466
0.015760 0.010452 -0.016341
-0.016650 0.027071 0.033355
0.003031 -0.012688 -0.016512
-0.019230 -0.013848 -0.016942
-0.012999 0.037909 0.006432
0.000532 -0.026963 -0.016890
-0.025379 -0.037767 0.005566
0.025484 0.021481 -0.007697
0.005214 0.035625 -0.016977
-0.025791 -0.029192 -0.008073
0.025921 0.016066 0.017172
0.024842 0.036852 -0.006560
0.021866 0.024808 0.032584
-0.009637 0.001457 -0.016617
0.001790 0.009350 0.032851
-0.014669 -0.013249 -0.016892
-0.006580 0.005075 -0.016588
0.021837 -0.008352 -0.016529
-0.014083 0.023725 -0.016780
0.011140 -0.029412 -0.016922
0.025394 -0.018328 0.008305
-0.015384 0.022751 -0.016769
0.024169 -0.038096 0.026199
0.025083 -0.029679 0.029913
0.007607 0.029424 -0.016690
0.025510 0.003987 -0.016482
0.013170 -0.030254 -0.016946
0.002027 0.027448 0.021813
-0.023447 0.013342 -0.016878
-0.015888 0.023026 -0.016793
-0.015777 -0.017669 0.033309
-0.007713 -0.032134 -0.017178
0.024518 0.020143 -0.016551
0.024824 -0.005309 -0.016893
0.006186 -0.038182 0.028902
0.025200 -0.028126 0.029289
0.005644 0.016391 -0.016371
-0.020238 0.037329 -0.016964
0.015434 -0.007407 -0.016401
0.025241 0.004220 -0.004727
-0.017121 -0.024945 -0.017075
0.004046 0.021090 -0.016396
0.002943 0.037880 -0.015641
0.013099 -0.019279 -0.016551
-0.024685 -0.025196 0.033670
-0.003020 -0.026395 0.026236
-0.015662 0.030257 -0.017069
-0.013678 0.018468 -0.016723
0.005890 0.014254 -0.016334
-0.023159 0.005623 0.033504
-0.013208 0.003952 -0.016727
-0.008480 0.008509 -0.016635
0.004796 -0.019523 -0.016615
0.003473 0.008753 0.032858
0.005531 0.002513 0.021525
0.025966 0.022849 0.020518
-0.005750 -0.025108 -0.016897
0.014153 -0.025337 0.032950
-0.025526 -0.036474 0.028801
0.020488 -0.006245 0.032790
-0.016977 0.004485 -0.016815
0.020074 0.009532 -0.016375
0.023234 0.003038 0.032693
0.001647 -0.012069 -0.016527
0.017908 0.002737 -0.016340
-0.014409 0.011359 -0.016738
0.006766 0.024143 -0.016369
-0.006820 0.008304 -0.016598
-0.025655 -0.025814 0.010305
-0.009795 -0.011149 -0.016731
-0.002107 -0.012023 0.033013
0.007442 0.006610 0.032802
0.010026 -0.022931 0.032925
-0.020324 0.036494 -0.016995
-0.003700 -0.026223 -0.016926
0.017721 0.026764 -0.016581
-0.021382 -0.020668 -0.017076
-0.017945 -0.028606 0.033174
-0.013675 -0.006982 -0.016774
-0.017259 -0.002657 -0.016838
-0.007780 0.003911 -0.016584
0.002808 -0.016002 -0.016568
0.009834 0.029211 -0.016623
-0.020617 -0.030308 -0.017221
-0.020813 -0.013584 -0.016918
0.021126 0.025987 -0.016534
-0.023965 -0.001463 -0.016696
0.014661 -0.022957 -0.016708
0.020977 0.030313 -0.016683
0.011468 -0.001528 -0.016400
0.012898 -0.022204 -0.016650
0.010504 -0.019427 -0.016597
0.025439 -0.013123 0.017586
0.012670 -0.020541 -0.016614
0.016863 -0.038224 0.030823
-0.025040 0.004500 0.008077
-0.024857 0.016733 -0.009228
-0.007118 0.006560 -0.016567
-0.007140 0.025600 -0.016674
-0.011726 0.018839 -0.016720
0.006284 -0.014083 -0.016515
0.001379 0.036798 0.017898
0.014578 -0.011918 -0.016473
-0.025846 -0.027456 0.019184
-0.009577 0.021977 -0.016640
-0.004670 -0.037873 0.013313
-0.009974 0.011240 0.033297
-0.009793 -0.036661 -0.017028
0.001563 0.026773 0.020889
-0.012326 0.016158 0.033327
0.025784 0.008372 0.018625
0.002175 -0.010154 0.032956
0.016864 0.012191 -0.016326
-0.006539 0.007263 -0.016581
0.007854 -0.023294 -0.016717
0.012630 -0.025350 -0.016769
0.010159 0.009968 -0.016296
-0.019121 -0.009004 -0.016914
-0.010503 -0.022708 -0.016927
-0.025230 0.033474 0.023390
-0.017141 0.007893 -0.016831
-0.006438 -0.003513 -0.016593
0.012211 -0.002910 -0.016367
-0.017895 0.029466 0.033367
-0.004438 0.025336 0.029400
0.024486 -0.013657 -0.014045
0.024001 -0.035086 -0.013522
0.014822 -0.010423 -0.016447
-0.000052 -0.009949 -0.016528
-0.008508 -0.007590 -0.016676
-0.001385 0.019061 -0.016436
-0.014952 0.027006 -0.016894
-0.021949 0.010799 -0.016925
0.016786 -0.020042 -0.016582
-0.019102 0.024468 0.033418
-0.008807 -0.007604 -0.016682
-0.025760 -0.035603 -0.012343
-0.012595 -0.023275 -0.016975
-0.023304 -0.005240 -0.016895
0.025730 0.009372 0.031057
0.007989 -0.011641 -0.016460
-0.013610 0.015738 -0.016707
0.024691 -0.019022 -0.006593
-0.006674 0.000204 -0.016573
-0.010869 -0.011807 -0.016727
-0.021377 -0.032688 -0.017164
0.001645 -0.009488 -0.016474
0.023304 0.011045 -0.016438
-0.011319 0.000114 -0.016649
0.003541 -0.035623 -0.017187
0.025035 0.007350 -0.012084
-0.007664 0.015624 0.033188
-0.003105 -0.037934 0.022108
0.000498 -0.029692 0.033022
0.008976 -0.033272 -0.017162
-0.010678 0.001610 -0.016680
-0.002363 0.038057 -0.015138
-0.014841 0.015595 -0.016774
0.025893 0.036583 0.006586
-0.013080 0.002495 -0.016700
0.021694 -0.024936 0.032785
0.022166 -0.017199 0.032752
-0.021715 0.024485 -0.016975
-0.023369 -0.020687 -0.017071
-0.025411 -0.028170 0.032197
0.019088 -0.020737 -0.016651
0.005447 0.014015 -0.016351
-0.002532 -0.017204 0.021252
-0.000947 -0.034684 0.032886
0.009968 0.006520 -0.016327
0.010767 0.036651 0.030611
-0.005308 -0.000585 -0.016580
-0.019212 -0.011043 -0.016880
0.007851 0.021047 0.032596
-0.001388 -0.031214 -0.017116
0.011839 -0.030657 -0.017006
-0.000879 0.027994 0.032487
-0.005606 -0.033014 0.032964
0.003943 0.012992 -0.016331
0.024405 -0.035506 -0.016506
0.025633 0.002361 0.011823
-0.015218 -0.015504 -0.016896
0.006199 -0.022069 0.024432
-0.001898 -0.009836 -0.016567
0.025275 0.020426 -0.014033
-0.025499 -0.010329 0.028657
0.018663 -0.037801 0.017152
-0.008078 0.016304 -0.016604
-0.001845 0.034320 0.032888
-0.016353 0.001950 -0.016781
-0.012002 0.036070 -0.017090
0.014829 -0.000574 -0.016330
0.021846 0.006195 -0.016364
0.002621 0.031527 -0.016817
-0.015165 -0.019081 0.033279
0.024463 -0.035472 -0.000346
-0.026047 -0.030949 0.020354
-0.011774 -0.029922 -0.017155
-0.021532 0.037147 -0.016900
0.008767 0.020123 0.032712
0.025556 0.000904 0.030709
0.000310 -0.032099 0.032929
0.022458 0.014316 -0.016423
-0.003509 0.031339 -0.016842
-0.021989 -0.033236 0.032925
0.000765 -0.028318 -0.016929
-0.019372 0.005801 -0.016903
-0.018042 -0.038158 0.019865
0.024197 -0.027253 0.032712
0.002048 0.027478 0.027747
-0.025678 -0.025781 0.003926
0.024718 -0.021760 -0.006255
-0.025287 -0.018929 0.032086
-0.023056 -0.038035 -0.002054
0.017802 -0.015609 -0.016553
-0.016990 -0.033939 0.033058
0.004700 -0.033184 -0.017157
-0.025354 -0.014782 -0.008201
0.006526 -0.025068 -0.016778
-0.011740 -0.038146 0.028825
-0.024996 0.024824 0.027961
-0.023419 -0.034035 -0.017114
-0.021156 -0.023902 0.033164
-0.006140 -0.037884 0.012912
-0.003620 -0.024777 -0.016882
0.006831 -0.022288 0.032233
0.024445 -0.013735 -0.016942
0.017012 -0.011287 -0.016469
-0.004783 0.005635 -0.016513
0.015931 0.019175 -0.016327
0.004436 -0.023172 -0.016731
0.024290 -0.036827 -0.009859
0.015921 -0.009508 -0.016448
0.004764 0.026364 0.031289
0.020443 -0.037900 0.022292
-0.003009 -0.023493 -0.016819
0.010673 -0.013854 0.032946
0.019069 -0.005347 -0.016435
-0.010808 0.014064 0.033303
-0.016593 -0.018546 -0.016962
0.020076 0.036579 0.025340
-0.007078 0.005165 0.033236
0.022078 0.029103 -0.016645
0.024773 -0.003430 -0.012012
-0.010421 0.036169 0.033385
-0.004676 0.023023 -0.016592
-0.020366 -0.017171 0.033264
0.020062 0.013201 -0.016396
-0.005548 -0.015447 0.033152
0.007648 -0.030054 -0.016989
-0.012512 0.032279 -0.017043
0.024579 -0.029413 -0.003495
0.007548 -0.021379 -0.016619
-0.001583 0.027117 0.021518
-0.022173 -0.030637 0.032952
-0.009871 -0.010381 0.033282
0.025721 0.017075 0.004610
-0.010137 -0.003074 0.033339
-0.023152 -0.031038 -0.017150
0.024831 -0.032818 0.017968
-0.013569 -0.032099 0.033115
-0.002379 -0.020451 -0.016741
0.026011 0.020325 0.022824
-0.025213 0.006262 0.024631
-0.025752 -0.025848 0.027684
-0.016387 0.023385 -0.016808
0.023058 0.019136 -0.016433
-0.018853 -0.011927 -0.016876
-0.007772 -0.022822 0.033212
0.003634 0.016956 -0.016390
-0.007740 0.034069 0.033017
-0.007111 0.002558 -0.016547
-0.002380 0.016552 -0.016477
-0.019707 -0.006210 -0.016878
0.024071 -0.011441 0.032674
-0.023439 0.018087 -0.016793
-0.002947 -0.037062 0.032946
0.008155 0.028252 -0.016588
0.003818 -0.035335 -0.017181
0.011932 0.034603 0.032689
-0.007788 -0.037959 0.014108
0.021067 0.001889 -0.016398
0.000888 -0.027471 0.027603
0.000071 -0.012559 0.032945
-0.002477 0.021614 -0.016535
0.006664 -0.028254 -0.016932
-0.016499 0.015421 -0.016802
0.023907 -0.000429 -0.016599
-0.000129 0.029090 -0.016700
-0.020390 0.015186 -0.016924
-0.025054 -0.005342 -0.009791
-0.019994 0.029429 -0.017050
-0.022706 0.002961 0.033484
-0.018152 0.038665 -0.008113
0.014704 -0.012947 0.032938
-0.007900 0.016524 -0.016596
-0.010865 0.036508 0.028043
0.005898 -0.008279 -0.016484
0.012511 -0.033200 0.032909
-0.022344 0.029184 -0.016941
0.025843 0.017815 0.008801
0.003206 0.037695 -0.010037
0.021315 0.030286 0.032553
-0.015997 0.021817 -0.016860
-0.005065 -0.002253 -0.016564
-0.005998 -0.022910 0.029184
-0.008115 0.019822 -0.016609
0.006501 0.022947 0.027130
-0.006885 0.006119 0.033225
0.005156 0.011413 -0.016322
0.013489 0.011733 -0.016214
-0.024984 0.023858 0.007560
-0.001354 0.036683 0.023520
0.024948 0.019582 0.032563
-0.004387 0.023890 -0.016620
0.024091 -0.032300 -0.014345
0.019687 0.031219 -0.016686
-0.002158 -0.018038 -0.016682
-0.025399 -0.003400 0.024346
0.010075 -0.014339 -0.016474
-0.002153 0.013898 -0.016485
-0.007331 -0.032020 -0.017180
-0.000132 0.034168 -0.016982
-0.002364 0.025797 -0.016654
-0.024648 0.037637 0.013987
-0.016051 -0.009533 -0.016853
-0.010613 -0.033726 -0.017150
0.014466 0.036857 0.011974
-0.003937 -0.036852 -0.016931
-0.024910 0.018806 0.008586
-0.009129 -0.017211 -0.016815
-0.011307 -0.012576 -0.016781
0.005200 -0.013815 -0.016505
-0.005350 -0.002695 0.025403
0.025935 0.015323 0.022338
-0.025077 0.026272 -0.009713
0.018279 0.036618 0.019941
0.017497 0.010166 -0.016318
-0.020645 -0.035765 -0.017146
-0.024986 0.003756 -0.003787
0.019367 -0.010429 -0.016534
-0.020933 -0.035314 -0.017123
-0.010573 0.014044 0.033294
0.006478 0.007274 0.032806
-0.025047 0.012363 0.029627
0.023673 -0.037571 -0.014431
0.018169 0.019830 -0.016344
-0.018778 -0.016226 -0.016927
-0.014846 -0.038222 0.030401
0.015612 0.036767 0.016229
-0.022850 0.033714 -0.016959
-0.021448 -0.038137 0.025792
0.019557 -0.037588 -0.003341
-0.017751 -0.033700 -0.017207
-0.005284 -0.005090 -0.016587
-0.017881 0.030279 -0.017067
0.003807 -0.024530 0.021347
0.022103 -0.036765 -0.016579
-0.017402 0.038614 -0.008416
-0.000538 0.035863 -0.016991
0.003751 0.022543 -0.016424
0.008175 0.025020 -0.016427
0.025188 0.000845 -0.004863
-0.011764 0.013412 -0.016630
0.001190 0.027626 0.028842
-0.016839 0.028849 -0.017013
-0.000167 0.020471 -0.016502
0.019362 -0.014157 0.032882
0.013926 -0.014645 -0.016474
0.020463 0.030504 -0.016674
0.008634 0.020509 -0.016321
-0.018288 0.010929 0.033503
-0.005001 0.023503 -0.016586
-0.015077 0.023137 -0.016796
0.023451 -0.028772 -0.016956
-0.008607 -0.011043 -0.016728
0.022048 -0.002179 -0.016380
0.017178 0.007943 0.032762
0.025105 0.008883 -0.016904
0.016529 0.034034 -0.016769
-0.024915 0.018754 0.030545
0.022885 0.036604 0.017005
-0.005020 -0.030617 -0.017080
0.022068 0.036647 0.012711
-0.019456 0.002367 -0.016867
0.025064 0.036794 0.015946
-0.007472 -0.030792 -0.017125
0.003054 0.036067 0.033057
-0.022585 -0.026849 -0.017110
-0.006752 0.026418 -0.016658
0.000924 -0.037457 -0.015899
0.012019 0.025405 -0.016438
-0.005140 -0.017621 -0.016731
0.025458 0.036623 0.024340
-0.025347 -0.014055 -0.006541
0.018378 0.025009 -0.016455
-0.020740 0.014780 -0.016944
0.014631 -0.036229 -0.017150
-0.023572 -0.023629 -0.017058
-0.005233 -0.018216 0.022313
0.024838 -0.036533 0.025530
0.020434 -0.037938 0.032741
-0.003240 -0.011195 -0.016620
0.003024 -0.025672 -0.016806
0.006316 -0.002316 -0.016439
-0.001982 0.001512 -0.016483
0.002983 0.011396 -0.016418
0.016103 0.030899 -0.016697
0.025181 -0.000879 -0.004057
-0.009670 0.026504 -0.016758
0.005569 0.010997 -0.016330
-0.001483 0.000715 -0.016464
0.015874 0.023275 -0.016402
-0.014605 -0.008845 -0.016790
0.013805 -0.027778 -0.016826
0.016626 0.002361 0.032833
-0.020147 -0.024298 0.033183
-0.005994 0.017907 -0.016581
-0.021435 -0.038108 0.030741
-0.015300 0.008037 -0.016795
-0.025109 0.027812 0.016209
-0.001290 -0.010354 0.032965
-0.006757 0.010433 -0.016572
-0.003990 0.031644 0.032938
0.009297 -0.037615 -0.008120
0.009218 0.016038 0.032767
-0.023232 -0.009977 -0.016906
-0.000122 0.036170 -0.016974
0.024897 -0.019555 -0.000782
-0.014462 -0.015244 -0.016895
0.014790 -0.009500 -0.016421
-0.005079 0.032104 -0.016894
-0.025018 0.038370 -0.006903
0.023822 0.032891 -0.016635
-0.014466 0.027604 -0.016902
0.025435 -0.013631 0.020058
-0.005968 -0.013093 0.033135
-0.024962 0.007860 0.007193
-0.002920 -0.003773 -0.016559
0.020019 0.014466 -0.016353
0.013486 0.005045 -0.016297
0.006208 0.012985 -0.016328
-0.004166 0.036943 0.016164
-0.010886 -0.003848 -0.016700
-0.019346 -0.033813 -0.017148
0.011728 -0.029886 0.032908
0.024515 0.001105 -0.016830
0.010375 0.012366 0.032811
0.014467 0.032610 -0.016792
0.021685 -0.005827 -0.016451
-0.009174 -0.006188 -0.016683
-0.000107 -0.032152 -0.017148
-0.021042 0.030989 -0.017118
-0.012551 -0.029523 -0.017137
-0.011390 0.038103 -0.004577
-0.003001 0.025993 0.021286
0.010502 -0.029985 -0.016996
-0.019912 0.026240 -0.016973
0.008324 0.015228 -0.016300
0.007754 0.025031 0.032645
0.024049 0.007423 -0.016488
-0.000800 -0.012563 0.032982
-0.002744 0.036661 0.022900
-0.015908 -0.003891 -0.016809
-0.022199 0.007968 -0.016936
-0.003928 -0.027301 -0.016951
-0.017874 -0.017501 0.033310
-0.025165 0.031330 0.026683
-0.014662 -0.038147 0.010788
-0.013551 -0.011771 -0.016784
-0.019744 0.005647 -0.016916
0.025377 -0.005532 0.006786
0.025984 0.020958 0.031344
0.001390 -0.024453 -0.016775
0.018238 -0.001505 -0.016373
0.014258 0.019231 -0.016269
-0.016699 0.022635 -0.016837
0.017587 -0.014245 -0.016517
-0.000712 0.027750 -0.016703
-0.013076 -0.022189 -0.016955
-0.025395 -0.015132 0.017615
0.012641 -0.011560 -0.016439
-0.018716 0.038632 -0.016045
-0.000115 -0.008593 0.032976
-0.001552 0.006206 -0.016472
-0.018474 -0.003357 0.033566
-0.024837 0.011259 -0.013574
0.025617 0.021979 -0.004573
-0.001703 -0.004856 -0.016547
-0.005285 0.010194 -0.016526
0.003417 -0.016468 0.025480
0.019257 0.030526 0.032489
-0.002953 0.004749 -0.016491
0.008768 -0.020874 -0.016647
0.024911 -0.031189 0.015655
-0.025354 -0.015552 0.009248
-0.001499 -0.026766 -0.016907
-0.017452 0.030010 -0.017063
0.004617 -0.037976 0.022652
-0.022572 -0.036551 0.032987
-0.025502 0.035957 -0.007430
-0.023028 0.003975 -0.016880
-0.010160 -0.030619 -0.017139
-0.006468 0.034581 0.033014
0.022850 0.009475 0.032658
0.025443 -0.003128 0.005725
0.025582 0.033550 -0.009012
-0.006302 0.021130 0.032702
0.022691 -0.003819 -0.016416
0.022525 -0.021227 0.032765
0.024491 -0.035687 0.001398
-0.023198 0.018134 -0.016815
0.021225 0.006755 -0.016327
-0.006733 0.004483 -0.016584
-0.011242 -0.001752 -0.016684
0.002187 0.007363 -0.016395
0.001241 0.029447 -0.016715
0.012525 -0.022678 -0.016685
-0.012089 0.000158 -0.016656
-0.014537 -0.003962 0.033474
0.020275 0.003176 0.032765
0.006850 0.028188 -0.016578
-0.013672 0.001011 -0.016742
0.025824 0.013308 0.011529
0.010774 -0.016490 0.032931
-0.020640 -0.026732 -0.017108
-0.023786 -0.015185 -0.016982
0.018127 0.017901 -0.016320
-0.010880 -0.005213 -0.016686
0.001883 -0.010612 -0.016505
-0.023354 0.025411 -0.016795
-0.010784 -0.015084 -0.016795
-0.001450 0.013835 0.032950
0.011624 -0.033815 0.032909
-0.003967 -0.009877 0.033065
0.007993 0.036365 -0.016936
-0.004734 0.001615 -0.016512
0.003298 0.001963 -0.016360
0.001622 -0.008303 -0.016506
0.025416 0.011168 -0.004529
0.014778 0.019924 -0.016294
0.022588 0.002253 -0.016415
-0.025100 0.015205 0.018444
0.016100 -0.023890 -0.016716
0.007747 0.036692 0.021785
-0.010372 -0.005235 -0.016679
-0.024139 0.038251 0.005489
-0.014759 -0.002083 0.033476
0.006413 -0.037791 0.011362
0.002977 -0.025524 -0.016809
-0.012760 0.020379 -0.016669
-0.000069 0.027918 0.031956
0.026136 0.033590 0.031445
-0.004057 0.013005 -0.016495
0.016844 -0.028785 -0.016900
-0.004857 -0.015889 -0.016728
-0.012576 -0.004991 0.033410
0.006014 -0.026202 -0.016829
-0.014322 -0.016475 -0.016892
0.022015 -0.017349 -0.016635
-0.006176 0.009516 -0.016566
0.025444 0.019575 -0.006978
-0.024905 0.005451 -0.010932
-0.003872 -0.027586 -0.016956
0.008006 0.016616 0.032715
0.000704 0.005942 -0.016472
0.023918 -0.002448 -0.016533
0.023482 -0.027089 0.032701
-0.020717 0.038696 -0.015806
0.008479 0.020345 -0.016297
-0.012423 0.033581 -0.017079
0.007370 -0.017939 -0.016536
0.012036 -0.031033 -0.017046
0.025504 -0.006619 0.029894
0.018355 0.030111 -0.016675
-0.020180 -0.035552 -0.017153
0.022766 0.027255 -0.016646
0.015905 -0.017931 -0.016572
-0.021634 0.011378 -0.016922
0.020273 -0.006914 -0.016483
0.025280 -0.022956 0.030244
-0.007829 0.000189 -0.016605
-0.011372 -0.027502 0.033148
0.020947 -0.037526 -0.003528
0.003683 -0.007643 0.032875
0.015796 -0.004030 -0.016381
0.015575 -0.022947 -0.016677
0.019661 0.032650 -0.016768
-0.003682 -0.031481 0.033000
0.014809 0.007829 -0.016263
-0.010313 -0.038010 0.011845
0.023511 0.036595 0.018748
0.003611 0.036862 0.016490
0.011365 -0.027788 0.032908
-0.015397 0.004366 -0.016790
0.012586 -0.017296 -0.016528
0.006966 -0.031852 0.032927
0.025347 -0.000781 -0.001521
0.002069 0.008832 -0.016429
-0.005962 0.019893 0.032657
-0.025931 -0.035946 0.002212
0.008250 -0.037611 -0.007461
-0.010065 -0.037269 -0.016265
-0.013559 -0.005720 -0.016746
-0.006300 -0.037620 -0.000832
0.024776 -0.034840 0.019242
0.011331 -0.003264 0.032837
0.010175 -0.037587 -0.011100
0.011945 -0.029825 -0.016944
0.013808 0.017115 -0.016250
0.017436 0.031605 -0.016670
0.021693 -0.025342 0.032803
0.025664 0.004925 0.030777
-0.025862 -0.032329 0.026269
0.024641 -0.006438 -0.013846
0.008862 -0.004078 0.032806
0.004352 -0.012573 -0.016465
-0.025323 0.030520 -0.011453
-0.025004 0.012011 0.030270
0.017262 0.034448 -0.016793
0.015274 -0.024222 -0.016747
0.025368 -0.015150 0.028454
0.025322 -0.008519 0.004090
0.021691 0.018958 -0.016409
0.005039 -0.029555 -0.016995
-0.004419 -0.035502 0.032890
-0.005593 -0.037478 -0.012509
-0.017474 0.026061 -0.016900
0.020460 -0.031487 -0.016971
0.002120 -0.002543 -0.016462
-0.010562 0.002586 0.033367
0.000414 -0.015420 0.031836
-0.025080 -0.015647 -0.014668
-0.025356 0.033868 -0.013239
0.020581 -0.022201 0.032861
-0.017804 0.011683 -0.016832
0.019929 0.030220 -0.016695
-0.016329 0.038265 -0.016596
-0.004805 -0.003580 -0.016579
0.023053 -0.007604 -0.016501
-0.025192 -0.003710 0.011407
0.025959 0.019022 0.025685
0.026077 0.035761 0.009626
0.010043 -0.014697 -0.016471
0.017167 0.023631 -0.016430
0.018975 -0.014982 -0.016539
-0.015682 -0.037932 0.000632
0.013926 0.003371 -0.016333
-0.012673 0.033432 0.033131
-0.021899 -0.023411 -0.017117
0.009630 -0.022946 -0.016662
-0.025271 -0.008392 0.011468
0.023961 -0.006275 -0.016681
0.008672 0.021552 -0.016342
0.019458 -0.013426 0.032870
-0.011046 -0.001325 0.033383
-0.010981 -0.037327 -0.016190
-0.014595 0.008840 -0.016743
-0.016892 0.006730 -0.016816
-0.025202 -0.004100 0.013326
0.021041 -0.023410 0.032821
0.002385 0.036650 0.024899
0.014702 0.002335 -0.016338
-0.024625 0.034567 -0.016402
0.024072 -0.035563 -0.011473
-0.025239 -0.005136 0.018669
-0.015703 0.020430 -0.016790
-0.025153 0.010693 0.017753
-0.024970 0.022634 0.012635
-0.025253 0.037281 0.008748
-0.006356 0.028839 -0.016749
-0.025540 -0.020453 -0.003546
-0.022274 0.037772 0.014629
-0.013583 -0.024764 -0.017008
-0.020702 -0.010391 -0.016901
-0.022108 -0.023318 -0.017122
0.025786 0.012036 0.026531
-0.015649 -0.032675 -0.017214
-0.010003 -0.026374 -0.017022
0.000085 -0.020891 -0.016705
-0.025529 -0.021938 0.007024
0.023047 -0.037744 0.011641
-0.014840 0.025573 0.033309
0.006331 -0.029937 0.032947
0.015060 -0.022871 -0.016680
0.006021 0.027950 -0.016615
0.013477 0.015706 -0.016212
0.004738 0.037394 -0.001599
-0.018018 -0.031780 -0.017190
0.003710 0.026049 -0.016573
-0.006527 -0.021181 0.032297
0.005987 0.007541 -0.016320
-0.022911 -0.016999 -0.016987
-0.013184 -0.019063 -0.016920
0.016030 -0.036316 -0.017132
0.002607 -0.037935 0.022805
0.019000 -0.019925 -0.016632
-0.014315 -0.013638 -0.016860
0.019740 0.009464 -0.016353
0.001283 0.035837 -0.016978
-0.019123 -0.028432 -0.017160
-0.025062 0.029175 0.028714
0.016494 0.008658 -0.016298
-0.025284 -0.019104 -0.013698
0.002209 0.013708 -0.016376
0.012102 -0.031467 -0.017058
-0.011114 0.036147 0.033423
-0.025146 0.002620 0.014167
0.023375 0.032659 -0.016635
0.011577 -0.000738 -0.016337
-0.007167 0.027570 0.033037
-0.009961 -0.022612 -0.016949
-0.025158 0.028659 0.009492
-0.023205 0.003256 -0.016901
-0.013007 -0.011731 -0.016778
-0.015576 0.001824 0.033515
0.004079 -0.035578 0.032888
0.025550 0.016667 -0.004709
-0.019234 -0.014861 -0.016954
-0.012964 0.007299 -0.016739
0.024854 -0.005990 -0.010126
0.018928 -0.017946 -0.016565
-0.021493 0.001892 -0.016892
0.005004 -0.037760 0.007161
-0.020051 0.003452 -0.016872
-0.001352 -0.010824 0.032952
-0.000531 -0.037678 0.005489
0.004190 -0.033698 -0.017162
0.009846 0.023596 -0.016352
0.019769 -0.022135 -0.016682
-0.012928 -0.037997 0.005230
-0.009456 0.003342 -0.016652
-0.004523 0.035107 -0.017020
-0.007088 0.013263 0.033148
-0.023916 -0.038341 0.019321
-0.021285 -0.025332 0.033154
-0.023789 0.019971 -0.016573
-0.017678 -0.012331 -0.016874
0.024519 -0.034231 0.002426
0.024434 0.008800 -0.016616
0.023414 0.016827 -0.016398
-0.025015 0.031067 0.029105
0.011950 0.000282 -0.016340
-0.001495 0.006088 0.022098
0.011874 -0.025770 -0.016775
0.013958 -0.008314 -0.016446
-0.019038 0.009953 -0.016881
0.025490 0.003998 0.003474
-0.018145 0.033728 -0.017105
-0.002847 0.019681 -0.016508
-0.024838 0.003080 -0.013272
0.025601 0.036079 0.029517
0.003075 0.035589 -0.016979
0.022535 -0.007696 -0.016529
0.013076 -0.033389 0.032913
0.019110 -0.038264 0.030397
0.003356 0.024506 -0.016516
-0.015325 0.038128 0.002830
0.001639 -0.033293 -0.017183
-0.004348 -0.037904 0.017386
-0.024155 -0.035834 -0.017070
0.007384 0.021356 -0.016355
-0.025094 0.015219 0.023045
-0.012634 -0.035267 -0.017133
-0.014191 0.037133 0.018613
-0.012579 -0.035706 -0.017109
0.011877 -0.008733 0.032895
0.003371 0.026861 0.021846
-0.025012 0.007080 0.009584
-0.025260 -0.008713 -0.004512
0.017208 -0.036209 -0.017139
-0.015380 -0.018310 0.033293
-0.000668 0.027035 -0.016618
-0.005460 -0.018244 0.032334
-0.018109 0.037835 0.013041
0.014111 -0.033136 -0.017117
0.013063 -0.019511 0.032945
-0.003283 -0.037605 0.001125
0.025018 -0.021058 0.005927
-0.011987 0.026647 -0.016763
0.005998 -0.001363 0.024019
-0.020201 0.030810 -0.017075
-0.024255 -0.037639 -0.012522
-0.006603 -0.002530 -0.016573
-0.008475 0.027637 -0.016742
-0.025009 0.021460 0.022876
0.019241 0.033415 -0.016743
-0.024866 0.013150 -0.005761
-0.025143 -0.004000 -0.004446
-0.010014 -0.015002 0.033269
-0.025278 -0.009553 0.002167
-0.025455 -0.017770 0.002245
-0.024824 0.019205 -0.012301
-0.003525 0.036812 0.033156
-0.008734 0.037176 0.014393
-0.024837 0.019208 -0.009884
-0.004260 -0.036389 -0.017099
0.012212 0.024703 -0.016397
-0.006069 0.023387 0.032756
0.025535 0.011320 -0.001386
0.020182 0.008338 0.032723
0.017750 0.017996 0.032736
0.003563 0.023171 -0.016418
0.003658 0.012533 -0.016368
-0.005853 -0.019620 -0.016803
0.011562 0.021347 -0.016267
-0.013493 -0.035154 -0.017155
-0.020072 -0.037938 -0.004083
0.001865 -0.020342 0.020993
-0.011225 0.009771 -0.016677
0.025327 -0.021071 0.030160
0.009176 -0.010131 -0.016426
0.001557 0.016043 0.028522
0.025585 0.014913 -0.016797
0.024667 -0.033942 0.005433
-0.005360 0.010639 -0.016516
-0.005954 -0.010718 -0.016666
0.013760 0.000917 0.032806
-0.008275 -0.016332 -0.016767
0.016281 0.036595 0.026904
0.020623 -0.026976 -0.016818
-0.022822 0.010732 -0.016934
0.022767 0.016532 -0.016406
-0.021993 0.027012 0.033469
0.020557 -0.018009 -0.016643
0.024711 -0.036105 0.023920
-0.002985 0.038082 -0.015239
0.020620 0.008253 -0.016361
0.001982 -0.028331 -0.016948
-0.006841 -0.009821 0.033204
0.012119 -0.021540 -0.016616
-0.025071 0.018427 0.020035
-0.014856 0.036306 0.030416
0.002447 0.031815 0.032803
-0.025366 -0.010351 0.033017
0.005820 0.033482 -0.016866
0.005617 0.023711 -0.016420
-0.025390 -0.014679 0.012336
0.022871 -0.015589 -0.016689
0.023766 0.031089 -0.016692
0.012231 0.030948 -0.016666
0.024349 -0.035059 -0.003960
-0.003215 -0.033286 0.032947
0.021993 -0.019816 -0.016675
0.011318 0.008297 -0.016294
-0.010355 0.008018 0.033349
-0.022150 0.018382 -0.016879
0.006866 0.004692 0.032769
-0.025097 0.027730 0.015004
-0.021261 -0.026941 0.033104
-0.019551 0.033459 -0.017110
0.018602 0.031446 -0.016734
0.023412 -0.038042 0.021813
-0.003827 0.025743 -0.016633
-0.009128 0.032332 -0.016950
-0.018848 -0.018813 -0.017012
-0.002341 -0.037508 -0.003686
0.025859 0.015846 0.011367
-0.023369 0.035603 -0.016840
0.014667 0.028968 -0.016593
0.017293 0.037285 -0.014123
0.004508 -0.005204 0.032194
-0.024972 0.022109 -0.000831
-0.007143 0.037359 0.009560
0.010665 -0.025473 0.032912
-0.016990 -0.027887 0.033198
-0.008470 -0.034317 -0.017172
0.005415 -0.023930 0.023339
-0.006511 0.015184 -0.016561
0.005817 -0.016613 -0.016571
0.017597 -0.032674 0.032884
0.023126 -0.031244 0.032752
-0.022338 -0.038101 0.029695
-0.025945 -0.035807 0.003661
-0.025297 -0.006410 0.020819
-0.025500 -0.036901 0.028213
-0.022325 -0.026112 -0.017097
-0.024894 0.013183 -0.006507
0.009506 0.025769 -0.016417
-0.025114 0.003711 0.014027
-0.003191 0.037380 0.005944
0.022020 0.008741 -0.016391
-0.011441 0.035354 -0.017087
-0.024882 0.017885 -0.005290
-0.025711 -0.025781 0.011921
-0.023398 0.027600 0.033565
0.005219 0.036538 -0.016973
-0.018559 0.003846 -0.016818
-0.007002 0.014828 -0.016590
0.012698 -0.020966 -0.016599
0.020257 0.005281 -0.016358
-0.007722 -0.037930 0.016356
0.025924 0.016178 0.017549
-0.004268 0.034148 0.032922
-0.002141 -0.021601 -0.016778
0.014808 -0.008580 -0.016422
-0.025166 -0.037884 0.020614
0.010068 0.016570 -0.016315
0.011594 0.006908 -0.016291
0.023166 -0.003784 0.032681
0.009504 -0.025589 -0.016845
-0.025472 0.036701 -0.002129
-0.024875 0.020970 -0.011003
0.012564 0.022146 -0.016328
-0.014979 0.030071 -0.017029
-0.014506 -0.002873 -0.016747
-0.025373 -0.014471 0.005885
0.017762 -0.004979 -0.016424
-0.000128 -0.032290 -0.017151
0.003066 -0.035513 0.032880
-0.017279 -0.000667 0.033509
-0.001246 -0.005891 0.031222
-0.024374 -0.019195 0.033396
-0.025853 -0.029030 0.027605
-0.008477 0.005535 -0.016606
-0.017338 -0.016352 0.033306
0.020040 0.031215 -0.016635
0.025561 0.007144 0.001058
-0.006908 -0.005794 -0.016624
-0.020313 -0.036431 0.033020
0.025958 0.027308 0.020781
-0.004692 -0.019516 -0.016799
-0.025673 -0.025036 -0.002055
-0.022726 0.020440 -0.016786
0.020125 -0.001309 -0.016396
-0.003525 -0.016814 -0.016717
-0.006894 0.003526 -0.016537
0.004055 0.010834 -0.016356
-0.006629 -0.019483 -0.016789
0.004762 0.016810 0.032123
0.022469 0.002917 0.032709
0.024168 -0.037890 0.018941
0.022394 0.036931 -0.012752
-0.002598 -0.033656 0.032932
0.017269 -0.038281 0.031167
-0.003840 -0.003954 -0.016566
-0.010680 0.006249 0.033360
0.008695 -0.036156 0.032920
-0.009813 -0.019440 -0.016866
0.008390 -0.017757 -0.016560
-0.025549 -0.015229 0.024064
-0.024960 0.005259 -0.007610
0.019520 0.015664 -0.016356
0.024393 0.011503 -0.016580
-0.000075 0.013385 -0.016464
0.025437 -0.012005 0.011780
0.010669 -0.008694 0.032912
0.015492 -0.017779 -0.016535
0.019908 -0.037605 -0.001998
-0.009651 0.029898 -0.016892
-0.023822 -0.038214 0.006803
0.001768 0.030286 -0.016767
0.001830 -0.032693 -0.017158
0.010997 -0.028972 -0.016914
0.019945 -0.025573 -0.016760
0.019585 0.016347 0.032733
0.022686 0.019009 -0.016426
-0.003421 -0.011404 -0.016621
-0.008811 -0.038458 0.033300
0.009276 -0.000737 -0.016359
-0.002037 -0.019642 -0.016732
0.013555 -0.007900 -0.016449
0.015992 -0.032697 0.032923
-0.008005 0.014086 -0.016597
-0.007564 0.031546 -0.016921
-0.011148 -0.032101 -0.017189
0.014242 -0.005558 -0.016380
-0.006539 -0.026118 0.033152
0.013531 0.008919 -0.016261
-0.017645 -0.001674 -0.016832
0.021407 -0.036221 0.032696
-0.007877 0.026543 -0.016697
-0.019718 -0.009328 -0.016894
-0.017451 -0.007756 -0.016851
0.000453 0.026330 -0.016619
-0.020954 0.034989 -0.017046
-0.008364 -0.016690 -0.016774
0.021276 -0.003872 -0.016429
0.025324 -0.016317 0.011522
0.025876 0.030462 0.009045
-0.024726 0.017684 0.033683
0.017226 0.009991 -0.016302
0.005914 -0.013558 -0.016516
-0.017000 0.038004 0.008035
0.025161 -0.023154 0.013237
-0.005482 -0.012824 0.033140
0.011537 -0.032053 -0.017084
-0.015769 -0.028426 -0.017142
0.010692 -0.035508 -0.017188
-0.010861 -0.031154 0.033099
-0.006809 -0.031836 -0.017165
0.025850 0.012639 0.025568
-0.006578 -0.011622 -0.016679
-0.025005 0.022612 0.018025
-0.021864 -0.031057 -0.017200
0.018752 -0.035187 -0.017093
0.016319 0.003546 -0.016338
-0.002683 0.026121 -0.016637
-0.013274 0.003064 0.033414
0.014478 -0.037579 -0.005618
0.025930 0.013771 0.030361
0.026000 0.027489 0.021699
0.016559 0.011537 -0.016285
0.009378 0.001164 -0.016359
0.012865 0.034693 -0.016835
0.010049 -0.034131 0.032913
0.015987 -0.021242 -0.016620
0.024928 -0.025920 0.006363
0.003092 -0.006162 0.032584
-0.025132 -0.014587 -0.013841
0.008369 0.025762 -0.016444
-0.024950 0.021572 0.014862
0.018988 0.033897 -0.016719
-0.003106 -0.014015 -0.016670
-0.013785 0.012023 -0.016690
0.025769 0.007027 0.018972
-0.006512 0.015415 -0.016585
0.025503 0.017144 -0.006319
-0.000993 0.023436 -0.016490
0.006242 0.014137 -0.016318
-0.008738 -0.029469 -0.017078
0.024532 -0.021558 -0.009508
-0.023727 -0.038279 0.016089
0.016629 -0.005839 -0.016413
0.009508 -0.038129 0.028022
0.023254 0.016385 -0.016418
0.025278 0.004756 -0.003522
0.018146 -0.003546 0.032843
0.023268 -0.037628 -0.008730
0.000908 0.005745 -0.016462
-0.005807 -0.006568 -0.016646
-0.016422 -0.037075 0.033190
0.014047 -0.014692 0.032946
-0.023810 0.002162 -0.016743
0.018584 -0.014971 -0.016519
-0.019314 0.014440 0.033468
-0.025425 0.031034 -0.004983
-0.017485 0.013312 -0.016892
0.012859 -0.009478 -0.016415
0.025602 0.033915 -0.010014
-0.023497 -0.027232 -0.017101
-0.016685 -0.025923 -0.017074
-0.005838 0.011024 -0.016552
0.000525 0.010479 0.032922
0.025593 -0.001777 0.028785
0.016659 0.024728 0.032599
-0.025330 -0.014180 0.013600
0.022119 0.035410 -0.016514
-0.010884 0.015708 -0.016683
-0.011838 0.017567 -0.016675
-0.019899 0.003032 -0.016878
0.001257 0.017951 -0.016447
0.016438 -0.014736 -0.016485
0.004990 -0.004318 -0.016455
-0.021797 -0.035756 -0.017108
0.004735 0.009220 -0.016347
0.022730 0.007388 -0.016411
0.003784 0.013054 -0.016350
-0.025142 0.029241 0.001557
-0.017292 -0.031396 -0.017191
0.018703 0.033783 -0.016719
0.013783 -0.029390 0.032941
-0.014994 0.028566 -0.016899
-0.025035 0.038264 -0.005378
-0.019538 0.032781 -0.017140
-0.020125 0.021223 0.033461
-0.020377 -0.002810 -0.016929
0.023352 -0.037676 0.008908
-0.005450 -0.032379 0.032986
0.020252 -0.038380 0.031446
-0.015059 0.002545 -0.016742
-0.005172 -0.037601 -0.002149
-0.021982 0.036658 -0.016899
0.020670 -0.006768 -0.016457
-0.025233 0.003724 0.019902
0.011083 0.004902 0.032833
0.022307 0.022234 -0.016441
0.016330 -0.012459 0.032928
-0.016934 0.027850 0.033359
-0.023133 -0.012723 0.033306
0.009274 0.036991 0.010040
0.003913 0.011023 -0.016358
-0.014050 -0.037695 -0.008628
0.010305 0.004115 -0.016312
-0.013225 -0.023316 -0.016952
0.001590 -0.022214 -0.016741
0.020945 -0.034246 -0.016999
0.020875 0.023083 -0.016496
0.014829 -0.027438 -0.016857
-0.006188 0.009694 0.033163
-0.020470 0.037526 0.017453
0.005263 -0.003519 0.028706
-0.012248 -0.038511 0.032146
0.021495 0.036544 0.020572
0.014915 0.000939 0.032840
-0.006049 0.006195 -0.016555
0.004892 -0.022292 -0.016712
0.025885 0.016442 -0.016533
0.005762 0.027548 0.032714
0.002780 -0.015153 -0.016541
-0.005871 0.001941 0.028994
0.025728 0.036460 -0.003377
-0.025126 0.015197 0.018922
-0.020255 -0.007773 -0.016886
-0.012856 0.028532 -0.016896
0.002470 -0.000870 -0.016444
-0.012983 0.022173 0.033298
-0.021433 -0.029936 -0.017181
0.006124 0.026011 -0.016488
0.013661 -0.031238 -0.016992
-0.009512 0.024651 -0.016658
-0.002632 -0.037623 0.002063
-0.024409 0.008540 -0.016143
-0.021337 -0.003380 -0.016915
0.008296 0.005930 -0.016319
0.013101 0.012302 -0.016236
-0.015020 -0.007166 0.033440
0.002650 -0.037807 0.014956
0.007107 0.005446 -0.016317
-0.016298 0.030902 -0.017079
-0.004648 -0.003977 -0.016595
0.012279 0.002503 -0.016289
-0.022011 -0.025469 0.033120
-0.022618 -0.020084 -0.017050
-0.000089 0.021167 -0.016495
0.002782 -0.005013 0.023578
-0.011985 0.023546 -0.016718
0.025613 0.010224 0.001136
0.013251 -0.000176 -0.016359
0.006356 0.012560 -0.016351
0.005911 0.016305 -0.016363
-0.002533 0.006548 -0.016470
-0.000503 -0.037827 0.015046
-0.021304 0.012150 -0.016910
0.014171 -0.032971 -0.017105
0.025303 -0.018203 0.030018
0.004077 0.036641 0.025632
-0.001110 -0.031421 -0.017115
-0.025658 -0.017433 0.033428
-0.025399 -0.017706 -0.009090
0.024999 -0.030224 0.020045
0.005888 -0.006868 0.032881
0.023681 -0.024355 0.032699
0.002245 0.029683 -0.016731
-0.011558 -0.007958 -0.016730
-0.019733 -0.035320 -0.017155
-0.010379 0.037713 0.007348
0.019421 -0.037514 -0.008371
0.007749 0.024444 -0.016379
-0.014536 -0.038114 0.010538
-0.013421 0.002743 -0.016710
-0.010357 -0.009461 -0.016770
0.018727 -0.008959 -0.016427
-0.001718 -0.009773 -0.016566
-0.015754 -0.038061 0.021567
0.025617 0.011649 0.002610
0.011488 -0.023829 -0.016758
-0.021822 -0.024120 -0.017093
0.013665 0.005380 -0.016291
-0.025482 -0.018285 0.004664
-0.025156 -0.002480 0.001232
-0.019543 0.024503 -0.016927
-0.024586 0.002327 -0.015842
0.004418 0.030166 -0.016681
-0.003603 -0.028069 -0.016980
-0.003766 -0.034380 0.032910
0.018985 0.003915 -0.016337
-0.004199 -0.028816 -0.017032
-0.025622 -0.020082 0.026859
-0.025238 0.007514 0.032832
-0.020665 0.002127 -0.016872
-0.024968 0.004786 -0.004577
0.011268 -0.028381 0.032905
-0.017519 -0.034287 -0.017190
0.025866 0.035977 -0.006974
-0.018768 0.020058 -0.016863
-0.020054 0.004496 -0.016878
-0.015803 -0.018294 -0.016972
0.006816 -0.038746 0.033065
-0.008482 -0.038647 0.032897
-0.022725 0.037520 0.019198
-0.013202 -0.017917 0.033268
0.023517 0.021202 -0.016441
-0.015999 0.033063 -0.017131
0.003458 -0.009470 -0.016475
-0.008553 -0.002122 -0.016604
0.022589 0.000784 -0.016450
0.002014 0.017414 -0.016412
-0.009142 0.036769 0.022523
0.005178 -0.018059 0.030124
0.003423 0.000392 -0.016442
-0.012990 0.003350 -0.016706
-0.002683 -0.022276 -0.016815
0.024650 -0.006150 -0.013686
-0.021120 0.019768 -0.016882
-0.009241 0.036323 0.032612
0.009751 -0.014615 -0.016471
0.014300 -0.021789 -0.016665
-0.002932 -0.009484 -0.016594
0.007803 0.006504 -0.016312
-0.011754 -0.033439 -0.017153
-0.025642 -0.019509 0.026539
-0.013793 0.036852 0.022246
-0.017067 0.010537 -0.016833
-0.001567 0.027750 0.032409
0.010512 0.029618 -0.016647
0.024874 -0.000958 -0.011297
0.013717 0.001179 -0.016342
0.004305 0.032978 -0.016874
0.006194 0.030954 -0.016749
-0.017968 0.008432 0.033523
-0.014750 -0.008829 -0.016808
-0.010164 -0.022573 -0.016941
0.016425 0.014205 -0.016261
-0.018467 -0.000818 -0.016831
-0.023326 0.036003 -0.016841
0.016060 -0.030609 -0.016968
-0.000395 -0.036612 -0.017115
-0.020288 -0.020528 0.033254
-0.025109 0.030055 0.025041
0.014975 0.014197 -0.016233
-0.013969 -0.013480 -0.016847
0.002098 0.023920 -0.016479
-0.009273 0.003984 0.033321
-0.012429 -0.033341 -0.017152
-0.018426 0.005364 -0.016834
0.021600 -0.021060 -0.016722
0.020051 -0.034297 0.032820
-0.016441 -0.003967 -0.016815
0.025975 0.018895 0.024181
0.025492 -0.007060 0.013721
-0.003695 -0.006785 0.033077
0.009877 -0.017264 -0.016563
0.021303 0.032431 0.032535
0.021486 -0.027687 0.032800
0.017943 0.012161 0.032773
-0.002259 -0.011266 -0.016586
-0.016063 -0.035928 -0.017188
0.000819 -0.037784 0.011335
-0.011145 -0.001811 0.033392
0.013638 0.007029 0.032796
-0.014285 -0.003343 0.033475
-0.014487 -0.030032 -0.017161
0.005876 -0.025105 -0.016793
0.001265 0.009631 -0.016443
0.025091 -0.029148 0.024825
-0.011716 0.016605 -0.016689
-0.010084 0.023559 -0.016694
0.006272 -0.037772 0.008380
-0.001128 -0.015805 -0.016634
0.006271 0.009016 -0.016345
-0.016651 -0.023693 -0.017001
-0.006490 -0.033785 -0.017156
0.009901 0.029960 -0.016634
-0.024638 0.036106 0.029123
0.009402 -0.018658 -0.016599
-0.011243 0.005751 -0.016672
0.009457 -0.007466 0.032847
-0.024829 0.011438 -0.012871
0.024307 0.036647 0.015805
0.007490 0.009297 -0.016313
-0.006892 0.016400 -0.016563
0.002949 0.013889 -0.016366
-0.025817 -0.027052 0.011090
0.001805 0.036764 0.020649
-0.006071 0.012659 -0.016523
0.002913 -0.034052 0.032919
-0.022783 -0.033099 -0.017137
0.013589 -0.006099 0.032888
0.025693 0.019693 0.031985
0.014273 0.037480 -0.015689
0.022926 -0.018458 -0.016711
0.006916 -0.026113 -0.016819
-0.013451 0.024317 -0.016766
0.017135 -0.011100 -0.016485
0.012078 0.035600 -0.016874
-0.024246 0.025252 0.033637
0.018667 0.032699 -0.016771
-0.006574 0.026096 -0.016665
0.005651 -0.034554 -0.017191
0.004597 0.026301 0.029214
-0.001220 -0.030205 -0.017049
-0.017858 -0.009040 -0.016863
0.005360 -0.022196 -0.016704
-0.002168 0.002607 -0.016476
0.025954 0.028475 0.008560
0.014167 -0.004107 0.032876
-0.000283 -0.037867 0.019054
0.025603 0.012251 0.000309
-0.019255 -0.019565 -0.016982
0.007056 -0.016307 -0.016545
-0.025871 -0.028211 0.005162
0.001350 0.005933 0.027048
-0.025976 -0.035505 0.003558
0.009095 -0.031447 -0.017044
-0.009137 -0.032789 -0.017161
0.003863 -0.015565 -0.016544
-0.025090 0.009637 0.029781
-0.014014 0.004770 0.033449
0.014976 -0.000010 0.032829
-0.008984 0.038322 -0.014391
-0.013509 0.037247 0.017292
0.017791 0.031432 -0.016691
-0.003325 -0.031900 -0.017152
-0.025183 -0.006837 -0.004262
-0.009276 0.006504 -0.016650
-0.010605 -0.006731 -0.016736
-0.016585 -0.030100 -0.017227
-0.024516 -0.002683 -0.016157
0.019445 -0.003096 0.032863
0.018252 0.037047 -0.008961
0.003206 0.016439 0.029817
-0.025459 -0.029223 0.032025
-0.020826 0.005024 -0.016866
0.011731 0.029075 -0.016612
0.008598 0.027090 -0.016494
0.024856 -0.036701 0.029069
-0.025011 0.024336 -0.003118
-0.022950 -0.007805 -0.016899
0.008695 0.032602 0.032726
0.002720 -0.030793 -0.017059
-0.016949 -0.004957 -0.016831
0.000748 0.002707 -0.016444
-0.004278 -0.001911 -0.016528
-0.004770 -0.026960 -0.016930
-0.003145 -0.008680 -0.016594
0.006915 0.022747 -0.016370
-0.025036 0.013213 0.032950
0.017869 -0.006202 -0.016399
-0.017913 -0.013803 -0.016881
-0.024363 -0.038192 0.014496
-0.016569 -0.011818 -0.016895
-0.009978 0.034663 0.033141
0.018682 -0.012026 -0.016481
-0.004988 0.020023 -0.016541
-0.020339 -0.013081 0.033349
0.014822 0.013905 -0.016217
0.025331 0.026627 -0.014390
-0.017815 -0.013084 -0.016876
-0.002765 0.006593 0.032939
0.016686 0.023936 -0.016406
0.006139 -0.024721 0.032379
-0.014374 -0.003374 -0.016751
0.023556 0.032217 -0.016632
0.015519 -0.036235 -0.017120
-0.016041 0.017022 0.033416
0.014858 -0.030841 -0.017015
0.006074 0.018018 0.032221
0.023145 0.030631 -0.016724
-0.004051 -0.018961 -0.016742
-0.005658 -0.015117 -0.016729
-0.010343 0.038303 -0.015814
0.013466 -0.033258 -0.017125
0.006279 0.036707 0.021598
-0.019382 -0.013568 -0.016940
-0.013672 -0.036985 0.033126
0.024365 -0.035917 -0.007624
0.017086 0.010131 -0.016306
0.020878 -0.031239 -0.016953
0.021058 -0.020647 -0.016707
0.009084 -0.033029 0.032930
-0.001055 0.027901 -0.016694
0.008798 0.016079 0.032768
-0.023531 0.012567 -0.016857
-0.008160 0.016840 0.033193
-0.018043 -0.022430 -0.016984
-0.015988 0.037377 0.017183
0.010428 -0.008899 -0.016414
-0.013822 0.025071 0.033299
0.005330 0.025577 0.029649
0.009942 -0.005591 -0.016398
0.025312 -0.017114 0.010967
-0.000586 0.027800 -0.016704
-0.019396 -0.017703 -0.017007
0.005577 0.024056 -0.016404
0.003439 -0.019318 -0.016648
-0.004311 0.037064 0.015044
-0.020284 0.032609 0.033404
-0.025919 -0.032909 -0.009421
-0.000261 -0.033406 -0.017163
0.015826 -0.023428 -0.016692
-0.020053 0.013010 -0.016902
0.001053 -0.038006 0.023987
-0.016516 -0.012861 -0.016863
0.008696 -0.013742 -0.016503
0.012041 0.023728 -0.016358
-0.025470 -0.017398 0.017912
0.002035 0.027358 0.029147
0.020921 -0.004272 -0.016451
0.025015 0.000874 -0.010377
-0.001475 0.016072 -0.016467
0.000107 -0.027681 0.030484
-0.013044 -0.026378 0.033197
0.025896 0.033182 0.006336
0.016883 -0.000807 -0.016361
0.019709 -0.012989 0.032872
-0.025329 -0.014533 0.013084
0.024305 -0.035169 0.032685
0.026065 0.029062 0.029700
-0.018948 0.020386 -0.016855
0.018383 -0.016174 -0.016589
0.007875 0.001026 -0.016397
-0.016400 -0.035962 -0.017181
-0.007516 -0.033610 -0.017163
