0.034401 -0.036165 0.000669
0.028329 0.032381 -0.002591
0.031700 0.008743 0.008293
0.014713 0.028217 0.010210
-0.018938 -0.016388 0.010093
-0.041923 0.026625 0.009368
-0.010646 0.020395 0.009919
0.009014 -0.031920 0.009024
0.022128 -0.037176 0.007952
0.016200 -0.023661 -0.018434
0.003169 -0.011062 -0.018425
0.026657 0.040352 -0.006807
0.009861 0.036988 0.009623
-0.037868 0.023175 0.009533
-0.040862 0.021732 -0.017262
0.004089 -0.021210 0.009493
-0.032661 0.020801 0.009684
-0.014654 0.005185 0.010222
0.002780 -0.036100 -0.018265
-0.001015 0.027607 0.009640
-0.022323 0.031014 -0.017815
-0.032388 -0.017332 0.009098
-0.032589 -0.017370 0.009003
0.006695 -0.009406 0.009639
0.025926 0.013578 0.011054
0.039380 -0.023494 -0.018170
-0.010492 -0.040676 0.008991
0.038122 -0.031882 0.008876
0.031166 0.007508 0.010488
0.011578 0.044997 0.009061
0.021975 0.043497 0.009208
0.029251 0.004900 0.010997
0.033457 -0.031726 -0.017783
0.005130 0.039476 -0.018051
0.005760 -0.039883 0.008542
-0.013038 0.034276 -0.018010
-0.011769 -0.027713 -0.018453
-0.014889 -0.040559 0.009113
0.017609 0.015575 0.010526
-0.011974 -0.046821 0.002014
-0.015443 0.037179 0.009090
-0.025705 -0.026254 -0.018093
0.000979 0.031304 0.009629
-0.019218 -0.038129 0.009372
0.005107 -0.026375 0.009316
-0.013400 -0.028696 0.009778
-0.010635 -0.010900 0.010105
0.010027 -0.027622 0.009163
0.041051 -0.022912 0.008611
-0.007001 0.007451 0.010117
0.041087 -0.030857 0.008938
0.028599 -0.001476 -0.018366
-0.025646 0.009745 -0.017971
0.029797 0.021566 0.007344
-0.000697 -0.041491 -0.017993
0.017320 -0.038936 -0.013359
0.040044 -0.019516 0.008568
0.015215 -0.022472 -0.018477
0.000339 0.020148 0.009848
-0.030898 -0.010842 0.009410
0.019218 -0.037148 0.008315
0.015782 0.045225 0.009102
-0.015402 0.016649 -0.018232
-0.012249 0.023579 0.009835
0.039891 -0.033153 -0.014918
-0.015948 -0.013152 0.010123
0.000633 -0.000200 -0.018402
-0.032047 0.038647 -0.007997
-0.037151 0.035058 -0.017121
-0.030075 0.030228 0.009569
0.025786 0.041213 -0.017030
-0.010041 -0.038016 -0.018448
0.025008 0.047472 -0.012685
0.009702 0.003598 0.010060
0.024629 -0.033867 0.008717
-0.012728 -0.014736 -0.018336
0.012765 0.042808 0.009243
0.007040 -0.008226 0.009655
-0.035920 -0.004054 -0.017528
-0.030568 -0.020677 -0.017889
0.035650 -0.016235 0.010024
0.007732 -0.025727 -0.018478
-0.003430 -0.043502 -0.015794
0.029901 -0.022249 0.009759
-0.036803 0.012673 0.009422
0.034017 -0.034203 0.008244
0.002740 0.036269 0.009465
-0.019760 -0.017243 0.010079
0.035730 -0.001261 -0.016309
0.015345 0.000749 0.010265
-0.024439 -0.008142 0.010006
0.005124 0.046387 -0.015491
-0.026070 -0.026174 0.009734
0.010228 0.038542 0.009532
0.002907 -0.041898 0.007857
0.012750 0.048100 0.007568
-0.010818 0.029158 0.009555
-0.017806 -0.010773 0.010209
0.001908 0.034665 0.009530
-0.025998 0.031206 -0.017685
0.024445 -0.029774 0.009095
0.027538 0.036401 -0.005873
-0.004402 0.040892 -0.017692
0.010682 0.043407 -0.017916
0.025672 -0.013117 0.010164
-0.020454 0.034587 -0.017828
0.011177 -0.022265 -0.018472
-0.026875 0.036640 -0.017415
0.020000 0.032815 0.009829
-0.005994 0.002956 0.010097
0.036551 -0.035641 0.001232
-0.042184 0.016806 0.007833
-0.014596 0.017710 0.010050
0.041610 -0.034631 -0.004785
0.013872 0.049542 -0.002256
0.008267 -0.036807 -0.018206
0.028958 -0.027746 -0.018134
0.004574 -0.023534 0.009418
0.008653 0.012465 0.010203
0.038666 -0.012402 -0.015442
0.030133 0.017923 -0.018175
0.034418 -0.008457 -0.018307
-0.013592 0.034495 -0.018016
-0.040916 0.015031 -0.017309
-0.033686 -0.018475 -0.015130
0.015820 0.019257 0.010377
0.036851 -0.035879 -0.004221
-0.005483 -0.019803 0.009820
-0.010380 -0.046857 -0.003190
0.029629 -0.030554 -0.017920
-0.008878 -0.041368 0.008897
-0.045448 0.028986 0.004610
0.002655 -0.040401 0.008633
-0.005006 -0.027834 0.009576
0.019297 -0.000172 0.010423
0.027678 -0.037911 -0.003264
-0.033767 -0.017344 -0.010366
-0.007743 -0.046017 -0.005841
0.001590 0.042292 0.008945
0.036140 -0.009265 0.009749
-0.026858 -0.039838 -0.018285
-0.034711 -0.010183 0.008935
-0.025353 0.031452 -0.017703
0.022069 0.050793 0.005204
-0.040834 0.029857 0.009497
0.023141 0.044509 0.009138
-0.040558 0.010621 -0.015788
-0.011531 0.035231 -0.018078
-0.012033 -0.033203 0.009576
-0.036449 -0.002644 -0.017491
-0.033359 0.035557 0.009223
-0.007251 0.036414 -0.018102
0.001105 -0.006238 0.009863
0.006097 -0.041372 0.007704
0.013270 -0.036202 -0.018057
0.042773 -0.028794 0.007578
0.016785 0.027686 0.010232
0.001583 -0.016128 0.009631
0.037872 -0.022405 0.009619
-0.011459 -0.012136 0.010082
0.006328 0.025152 0.009973
-0.011386 0.014773 0.010094
0.000748 0.025709 0.009749
0.035439 -0.002837 -0.017983
0.025954 0.043370 -0.009005
-0.037198 0.018307 0.009456
-0.010226 0.007515 0.010187
0.025790 0.035087 -0.018112
-0.018105 0.036758 0.009131
0.026662 -0.038143 -0.000074
0.002210 0.011044 -0.018364
0.012942 0.019730 0.010286
0.001666 -0.028240 -0.018439
0.013969 0.021753 0.010280
-0.042412 0.034787 0.008866
0.007326 0.033222 0.009799
0.033188 -0.009025 0.010097
-0.029486 -0.031397 0.008646
0.039880 -0.019242 0.001601
-0.009647 -0.002185 0.010167
0.011767 0.043454 0.009171
0.004175 0.025726 0.009880
-0.039417 0.037123 -0.002041
-0.009290 0.017886 0.009980
0.005147 -0.040523 -0.017726
0.019003 -0.027992 0.009098
-0.023539 -0.006282 0.010111
-0.001145 0.006778 -0.018384
-0.005055 -0.043414 0.008001
0.018307 -0.037095 -0.017587
-0.009461 0.013643 -0.018311
0.013249 0.043301 0.009202
-0.027602 0.028493 0.009654
-0.022046 0.005948 0.010173
0.016547 -0.032903 0.008700
-0.012158 0.007961 0.010232
0.004901 -0.023466 -0.018485
-0.034430 0.007380 -0.017605
-0.031334 -0.020686 0.009109
0.009485 -0.007145 0.009720
0.018829 0.047849 -0.017740
-0.006513 -0.043773 -0.017634
-0.016896 0.023811 0.009837
0.009787 -0.021799 -0.018533
0.017217 0.049691 0.005118
-0.023597 -0.049802 0.000900
0.024808 0.048484 -0.015123
0.026468 0.040909 -0.003779
-0.023834 -0.030496 0.009698
-0.035464 0.006668 -0.017507
0.028832 0.007968 0.011303
0.012263 -0.023405 0.009247
-0.040690 0.010625 -0.007422
-0.004083 0.019799 -0.018360
0.024750 -0.030120 0.009050
0.028010 -0.005676 0.010598
-0.019601 0.007386 0.010209
-0.029610 -0.032096 -0.018078
-0.040667 0.009975 0.002085
-0.003349 0.007247 0.010086
0.014182 -0.032039 0.008858
-0.039405 0.005120 -0.003868
-0.003222 -0.026186 -0.018461
-0.028217 -0.040040 -0.003506
-0.029644 -0.034869 -0.012786
0.005017 0.042916 0.009002
0.007139 -0.022634 -0.018535
-0.009248 0.019907 -0.018298
-0.010103 0.005322 0.010209
0.029878 -0.004218 -0.018408
-0.020063 0.010288 0.010159
0.005677 0.005528 0.009973
0.016914 -0.037071 -0.017728
0.015745 -0.023151 0.009244
0.012114 0.002088 0.010150
0.024244 -0.019221 0.009765
-0.015655 -0.045360 -0.018229
-0.038937 0.029953 0.009475
-0.028273 0.012002 0.009958
-0.040175 0.029211 0.009515
0.018701 -0.039917 -0.006661
-0.032993 0.008609 0.009546
0.025749 0.025437 0.009810
-0.013634 -0.044237 0.008610
-0.008229 0.013829 0.010079
0.040072 -0.033062 -0.015182
-0.028756 -0.005015 0.009736
0.005573 -0.006818 0.009713
0.017220 -0.024047 0.009242
-0.018894 -0.027317 -0.018289
0.029401 -0.036245 -0.012002
-0.025194 -0.011717 0.009973
-0.015615 -0.045535 -0.018172
0.036891 -0.010613 -0.018189
-0.030603 -0.031042 -0.017696
0.038732 -0.035534 -0.007393
0.005300 -0.043100 -0.002546
0.040241 -0.018850 -0.014052
0.005501 0.023146 0.009988
-0.002005 -0.038795 -0.018316
-0.031277 0.038979 -0.000000
-0.039955 0.034925 0.009156
-0.005375 0.038572 0.008948
0.035168 -0.020413 -0.018221
0.028832 0.029840 -0.002362
0.001931 -0.043161 0.005552
-0.040080 0.017485 -0.017374
-0.037317 0.000585 -0.017465
0.021578 -0.022811 0.009487
0.025711 -0.005805 -0.018461
-0.013624 -0.021194 0.009976
0.030467 0.006300 0.011120
0.010958 -0.036813 -0.018128
-0.021029 -0.031748 -0.018281
0.022059 0.015795 0.010706
-0.009353 0.000415 0.010177
0.041357 -0.025877 -0.017221
0.024701 0.046352 0.008490
0.018848 0.033192 0.009844
-0.022551 -0.003546 0.010172
-0.029963 0.019587 0.009822
-0.040576 0.036638 -0.009714
0.005432 -0.023733 -0.018464
0.023004 -0.018120 -0.018601
0.009516 0.025397 0.010048
-0.029045 -0.011577 -0.017865
0.031834 -0.036977 -0.003642
0.010033 0.025126 0.010076
0.008657 -0.021856 -0.018525
0.000253 0.034163 0.009434
-0.008323 -0.007520 0.010132
-0.023868 0.013444 0.010141
-0.018824 0.007705 0.010217
-0.006470 0.019962 0.009911
-0.016719 0.006698 0.010220
0.019490 -0.035810 0.008523
0.016279 -0.037745 -0.017523
0.017871 0.038503 0.009537
0.035320 -0.012504 -0.018341
-0.008047 0.039706 -0.017686
-0.025324 -0.024859 0.009836
-0.006028 0.035844 -0.018077
0.032375 -0.026704 0.009465
-0.029794 -0.014051 0.009540
0.026260 0.041510 -0.001729
-0.028325 0.007793 -0.017833
0.025402 -0.032436 0.008861
0.027378 -0.033531 -0.017842
0.002300 -0.001083 -0.018417
-0.019737 0.011591 0.010167
-0.030354 -0.013814 0.009469
-0.043793 0.036070 -0.000814
-0.034391 0.029910 -0.017427
0.013357 0.025377 0.010180
0.010986 -0.041638 -0.007143
-0.024644 0.012003 0.010070
0.026897 0.000646 0.010854
0.009688 0.037992 -0.018061
-0.025843 -0.049744 0.004847
-0.011833 -0.029737 0.009702
-0.026196 -0.038517 0.009146
-0.031940 0.024227 0.009702
-0.043576 0.021570 0.005442
0.024046 0.047435 0.008874
-0.023064 -0.048779 -0.012223
0.022316 0.048022 0.009069
-0.032007 0.025176 0.009715
-0.035680 -0.005998 0.009004
-0.021612 -0.023976 0.009988
0.002366 -0.010635 -0.018420
0.007618 -0.042435 -0.004994
-0.024132 0.032789 0.009425
-0.008066 0.036241 -0.018086
0.021343 0.042312 -0.018039
-0.032792 -0.021410 -0.017601
-0.024247 0.034591 -0.017681
0.002789 0.035743 0.009482
0.009761 -0.013978 0.009488
0.002878 -0.019170 0.009539
-0.024650 -0.028338 0.009776
0.042696 -0.034856 0.004143
-0.042814 0.026305 -0.017078
-0.020438 0.034304 -0.017842
0.025973 0.039567 -0.017298
0.041190 -0.034740 0.002797
0.015641 0.020801 0.010349
-0.016929 -0.038181 0.009252
-0.011950 0.042692 0.007218
-0.040545 0.018658 -0.017316
0.035334 -0.035725 0.002957
-0.014282 0.040401 -0.017383
-0.031493 -0.018216 -0.017839
0.025091 0.041128 0.009165
-0.035408 0.034114 -0.017278
-0.003847 -0.005224 0.009990
0.028243 -0.008952 0.010493
-0.022263 -0.042068 -0.018396
0.028923 -0.019184 -0.018355
0.034892 0.001593 -0.016775
0.005806 -0.038757 -0.018133
-0.031696 -0.024540 0.008094
-0.027328 -0.008697 0.009887
0.002254 -0.009875 -0.018438
0.027054 0.037544 0.003200
-0.021230 -0.028435 0.009840
0.004991 -0.005343 0.009762
0.020244 0.036020 0.009600
-0.022042 -0.013526 0.010054
-0.000364 0.044327 -0.017237
-0.043496 0.033629 0.009365
0.005268 -0.021185 0.009451
-0.027795 0.039808 -0.000285
0.041574 -0.028773 -0.017786
-0.029852 -0.015574 -0.017864
-0.016632 -0.040928 0.009112
0.003879 0.044489 -0.017633
-0.002563 0.032209 0.009406
-0.017019 -0.022039 0.010016
0.007187 0.042861 0.009138
0.032515 -0.000970 -0.018307
-0.031506 -0.009295 0.009359
-0.028512 -0.029259 0.009172
-0.022176 0.041127 -0.000220
0.015322 0.006918 0.010397
-0.012290 0.001965 0.010275
0.014868 -0.018836 0.009435
0.009445 0.000343 0.009974
0.006802 -0.042707 -0.004153
0.017602 -0.028128 0.009064
-0.032152 -0.006252 0.009361
-0.011450 0.008719 0.010193
0.030009 0.021865 0.004253
-0.015273 -0.039691 0.009200
-0.036210 -0.000764 -0.017508
0.036039 -0.024091 0.009667
0.027382 0.028710 -0.018156
-0.013569 0.035292 0.009206
0.017182 -0.018661 0.009513
0.028875 -0.012097 -0.018359
0.012388 -0.021060 0.009300
0.012047 0.009103 0.010294
0.012312 -0.028284 -0.018395
-0.021976 0.033309 -0.017829
0.012501 0.044260 0.009146
-0.019511 0.012555 -0.018129
0.003428 -0.021710 -0.018436
0.020062 -0.001833 0.010395
0.030005 -0.009605 -0.018349
0.017724 0.049179 -0.016637
-0.045806 0.030533 0.001343
-0.033730 -0.005673 -0.017621
0.015138 0.042009 -0.018037
-0.035011 -0.002384 -0.017562
-0.016677 -0.002350 0.010254
-0.021129 0.041421 -0.001269
0.024038 -0.036362 0.008228
0.000446 -0.011737 0.009810
0.009097 -0.002314 0.009892
0.036603 -0.035705 0.000525
-0.009155 0.012997 -0.018325
-0.007915 0.041060 -0.017598
0.036093 -0.005730 0.003780
0.041513 -0.032951 -0.010294
0.004648 -0.041575 -0.015712
0.017581 0.016040 0.010509
0.024269 -0.034301 -0.017900
-0.037268 0.018689 0.009480
-0.006014 0.036443 -0.018114
0.012175 -0.039499 -0.016904
0.004840 0.047347 -0.003330
0.011043 -0.020358 -0.018502
0.004717 0.042167 0.009098
-0.009601 -0.044299 -0.017987
-0.031397 -0.027715 -0.017684
0.030237 0.020709 0.003467
-0.024332 0.005728 0.010081
0.037493 -0.009881 0.007238
-0.030084 0.039218 -0.003123
-0.028432 0.031464 -0.017632
-0.027374 -0.018472 -0.017967
-0.030110 0.027721 0.009661
-0.024956 -0.030827 -0.018195
-0.038696 0.034442 0.009336
-0.012395 -0.026554 -0.018378
0.005585 0.003310 0.009911
-0.000153 0.017552 -0.018358
0.031065 -0.018478 0.010029
0.012623 -0.040996 0.003944
0.006636 0.032653 0.009784
0.005315 0.023130 -0.018345
0.013514 -0.040109 -0.011483
0.000921 0.025286 0.009771
0.001279 0.020034 0.009846
0.020929 0.045079 0.009130
-0.014962 -0.032166 0.009672
0.031022 0.014041 0.005968
0.029485 0.026212 -0.000620
-0.024273 0.025130 0.009797
-0.041623 0.034883 0.008909
-0.041448 0.036598 -0.004526
-0.004995 -0.039749 -0.018375
-0.029219 -0.036086 0.001766
-0.029147 0.038287 -0.014627
-0.004871 -0.036050 -0.018432
-0.025950 -0.037052 0.009281
0.004723 0.004085 0.009904
0.026108 0.041551 0.006993
0.018758 -0.016659 -0.018480
0.032324 0.006348 0.007015
-0.038447 0.036681 0.006309
-0.032765 -0.018910 -0.017786
-0.042920 0.025276 -0.017095
0.001747 -0.014522 0.009708
-0.012566 0.033487 0.009304
0.001714 -0.006574 -0.018411
-0.000828 -0.040048 0.008781
0.004128 -0.013680 0.009619
-0.024547 0.038040 0.008980
0.030310 -0.037334 -0.009314
-0.036558 0.037643 -0.001717
0.018951 0.050460 0.002582
0.023304 0.049583 -0.017472
0.017227 0.050262 -0.008598
-0.010064 -0.046256 0.003680
0.028305 -0.036203 0.007262
-0.039862 0.036762 0.002542
-0.040353 0.036503 0.004235
-0.018752 -0.048652 -0.006920
-0.038404 0.028346 -0.017239
0.009020 0.018828 0.010182
-0.019947 -0.044268 -0.018482
0.029194 -0.009331 -0.018370
-0.033917 -0.007981 0.009197
0.018614 -0.016228 0.009668
0.040292 -0.021012 -0.016734
0.037043 -0.010562 0.009446
-0.027112 -0.043723 0.007785
0.009616 -0.023601 0.009269
-0.006978 0.000393 0.010116
-0.022434 -0.027318 0.009907
-0.005216 -0.031019 0.009510
-0.000452 -0.009740 0.009852
-0.024267 0.039165 0.008486
-0.021319 0.040531 0.007397
-0.006261 0.001005 -0.018352
-0.036131 -0.007728 -0.017227
0.007399 0.014628 0.010146
0.015014 0.001554 0.010267
-0.039140 0.010987 0.009148
-0.041791 0.017043 -0.016760
0.035655 -0.007544 0.009790
0.022524 0.044149 0.009173
-0.011476 -0.021520 0.009921
-0.027364 0.025486 0.009753
-0.008681 -0.046282 -0.007613
0.020179 0.044105 0.009200
-0.003780 0.036117 -0.018049
-0.020005 -0.043945 -0.018471
-0.030690 0.005703 0.009590
-0.038419 0.033738 0.009380
-0.030764 -0.023863 -0.017922
0.008603 0.030724 0.009874
-0.027062 0.014952 0.009958
0.029067 0.028617 -0.002627
-0.029876 -0.031220 -0.018060
0.011584 -0.041504 -0.008661
0.019793 0.041504 -0.018029
0.025303 0.007679 0.010982
0.026961 0.038233 0.002763
0.031026 0.014738 0.003884
-0.001121 -0.036962 0.009076
-0.039814 0.008109 0.008514
0.029558 -0.019655 -0.018325
-0.021398 0.020267 -0.018078
0.015331 0.010739 0.010427
0.021242 -0.013256 0.009916
0.007835 0.039169 -0.018061
0.027771 0.035334 -0.007593
-0.028870 -0.020732 -0.017926
0.017561 -0.030301 0.008896
-0.032629 0.013354 0.009632
-0.004363 -0.045393 -0.002492
0.027988 0.021782 0.009920
-0.040191 0.008894 -0.012228
0.013624 -0.033870 0.008776
0.000624 -0.042801 0.007409
0.029886 0.023247 0.002623
0.037811 -0.032388 0.008800
0.014954 0.025153 0.010251
0.002904 0.006238 -0.018372
0.007683 -0.036701 0.008797
0.011887 -0.041093 0.004315
-0.011171 0.037387 0.009010
0.038568 -0.018410 -0.018210
-0.027630 0.031027 -0.017632
-0.008852 0.043946 -0.011302
-0.030611 0.001849 0.009596
0.033906 -0.022710 0.009778
0.011540 -0.020263 0.009323
-0.014560 0.015622 0.010101
-0.025970 0.004005 0.009963
-0.018638 -0.015615 0.010110
-0.023944 -0.032753 0.009593
-0.025861 0.036328 -0.017481
0.008025 0.024607 0.010039
0.026542 0.037679 0.008649
0.016769 -0.036163 -0.017963
-0.009064 -0.024252 0.009824
0.026636 -0.017008 -0.018570
0.028607 0.030070 0.004209
-0.024609 -0.007627 0.009993
-0.031820 -0.015858 0.009201
0.010604 -0.040792 -0.011544
-0.004170 0.023034 -0.018358
0.041935 -0.031856 -0.008792
-0.016436 0.033680 0.009331
-0.009775 0.004311 -0.018305
0.010455 0.006910 0.010176
0.042471 -0.033668 0.006124
0.007856 -0.013619 0.009509
-0.016125 -0.025143 0.009943
-0.029757 0.018561 0.009856
-0.032161 0.031918 0.009480
-0.014566 0.023425 0.009851
-0.030285 0.039126 -0.004390
-0.022979 0.036298 0.009141
-0.018112 0.040188 0.008698
0.003690 -0.012601 0.009654
-0.010113 -0.021666 0.009896
-0.027219 -0.021108 0.009730
0.021270 0.050410 -0.006278
-0.018881 0.021188 0.009968
0.017963 0.004113 0.010476
0.022578 -0.018010 -0.018601
-0.036528 0.037662 -0.001175
-0.014187 0.034544 -0.018029
-0.037111 0.017908 0.009463
-0.003619 -0.038950 -0.018326
-0.041970 0.020310 -0.017218
-0.034237 -0.015026 0.008057
0.028372 0.032465 -0.004912
0.023182 -0.023054 0.009511
0.029768 0.012711 0.009787
0.002337 -0.011951 -0.018442
-0.009524 0.018636 0.009960
0.012064 0.004787 0.010193
-0.015898 0.040072 -0.017381
-0.029248 -0.035867 -0.002878
0.031557 0.014959 -0.003445
-0.007518 0.008369 0.010136
-0.006225 -0.040810 0.008923
0.033213 -0.008705 0.010083
0.035307 0.000023 -0.010052
0.030302 0.009948 0.010440
-0.044971 0.033772 -0.008836
0.016593 -0.002533 0.010192
0.011170 -0.021247 0.009311
-0.030550 -0.026396 0.008799
0.015125 0.044555 0.009136
-0.043940 0.033682 0.009310
-0.015869 -0.040885 0.009083
0.022118 0.020556 0.010510
0.030242 0.006628 0.011180
0.023057 0.041266 -0.018015
0.030991 0.019858 -0.009123
-0.011822 0.031821 0.009413
-0.013051 0.038814 0.008943
0.025110 0.025953 0.009847
-0.034313 0.005634 0.009398
-0.015818 0.039696 -0.017455
-0.011723 0.036460 -0.017968
-0.041523 0.013411 0.003687
0.008285 0.030780 0.009866
-0.013023 -0.021750 0.009948
0.030631 -0.006045 -0.018399
-0.025907 0.019293 0.009904
-0.006236 0.013560 -0.018344
-0.028079 0.010409 0.009956
-0.032095 0.008407 0.009586
-0.014119 0.018868 0.010007
-0.020304 -0.031101 0.009671
0.020182 -0.034189 0.008613
-0.017550 0.038861 0.008925
0.029272 0.025534 0.006759
-0.020652 0.011563 0.010154
0.027784 0.035268 -0.005887
0.038448 -0.019324 0.009796
0.032509 -0.003634 0.010036
-0.005598 0.039259 0.008897
-0.012451 -0.040711 -0.018441
-0.013761 0.013304 0.010115
0.015392 0.042817 0.009286
0.031921 0.001339 -0.018279
-0.036947 -0.004154 0.008119
0.010097 0.037084 0.009611
-0.027197 -0.044965 -0.012475
0.033987 -0.015664 -0.018379
0.041453 -0.023237 -0.015118
0.003343 -0.036335 -0.018229
-0.005764 0.001979 0.010095
0.006853 0.038380 -0.018057
0.041419 -0.023839 -0.012636
-0.044044 0.029710 0.009372
-0.028849 -0.008680 0.009703
-0.015218 0.013138 0.010159
-0.025086 0.039522 0.007637
0.009149 -0.041832 -0.010945
-0.013360 0.035131 -0.018019
0.038058 -0.013278 -0.017684
0.029793 0.025282 -0.006803
-0.029555 0.038166 0.008217
-0.025689 -0.023373 0.009827
-0.037176 0.001043 0.008944
0.001944 -0.034642 0.009120
-0.030399 -0.031105 -0.001716
0.009054 -0.040979 -0.012495
-0.002575 -0.017432 0.009830
0.012725 -0.021793 0.009280
-0.026323 -0.002780 0.009940
0.027698 -0.012236 -0.018366
-0.008627 -0.023157 0.009794
0.028359 0.007591 0.011209
0.027223 0.036967 0.003496
-0.035075 0.019005 0.009569
0.024055 0.040731 0.009251
-0.012900 -0.047304 -0.001828
0.029667 0.021031 -0.018069
-0.005527 -0.043922 -0.016342
0.037465 -0.035778 -0.007758
0.019688 0.042248 0.009279
-0.030780 -0.020073 0.009237
0.028845 -0.033313 0.008782
0.037968 -0.012006 0.004511
-0.028351 0.036966 -0.017264
0.028922 -0.000033 -0.018335
0.004015 0.031872 0.009701
-0.020902 0.038278 0.008980
-0.026004 -0.016006 0.009857
-0.011584 -0.039767 0.009103
-0.029113 0.009368 -0.017884
-0.010891 0.018266 0.010006
-0.045650 0.034547 0.008756
-0.004846 0.015330 0.009983
-0.005787 0.027364 -0.018260
-0.033743 0.015659 0.009605
-0.033877 0.027272 0.009624
0.025729 -0.007864 -0.018427
0.025393 0.045504 -0.003158
0.033513 0.003423 0.001480
-0.023976 0.016976 0.010063
0.008513 0.039506 0.009451
0.007493 -0.019949 0.009384
0.014484 -0.016848 -0.018524
0.006909 0.024486 0.010018
0.032588 0.011552 -0.007614
-0.043184 0.024472 0.009165
-0.043157 0.033374 0.009383
0.016994 0.049120 0.007354
0.021233 -0.033673 0.008669
-0.019267 -0.020072 0.010052
0.024138 0.036893 -0.018086
0.010524 -0.039014 -0.017698
-0.029208 -0.036165 0.003119
-0.016842 0.019585 0.010006
0.011566 -0.020013 -0.018504
-0.015709 -0.044741 0.008641
-0.040140 0.023468 0.009385
0.004408 0.010985 0.010022
0.020923 -0.021746 0.009505
-0.016955 -0.039274 0.009177
-0.002780 0.011451 0.009994
-0.037367 0.009298 -0.017515
-0.020610 -0.001639 0.010243
0.040188 -0.021075 0.009136
0.007280 -0.024794 0.009323
0.037314 -0.029912 -0.017826
0.022464 -0.015300 -0.018484
0.009256 -0.002819 0.009882
0.022880 -0.013353 -0.018401
-0.029891 -0.033752 -0.011869
0.034552 -0.026530 0.009496
-0.039764 0.014743 0.009228
0.036260 -0.004160 -0.009569
-0.008568 -0.012460 0.010003
-0.034320 0.009219 0.009465
0.030385 0.020743 0.000260
-0.004314 -0.003561 0.010018
-0.021684 0.027395 0.009710
0.008940 0.026708 0.010004
-0.023918 0.024060 0.009818
0.033290 -0.032851 0.008837
-0.014512 0.005405 0.010232
-0.024349 -0.031136 -0.018189
0.012871 -0.020148 0.009301
0.003277 -0.009681 0.009737
-0.002676 0.024059 0.009702
0.032514 0.006703 -0.018258
0.002258 -0.011510 0.009733
-0.028175 0.029790 0.009589
0.007809 -0.020516 0.009358
0.010081 0.042048 0.009308
0.010596 -0.039146 0.008316
-0.002205 -0.023926 0.009645
-0.018548 -0.004591 0.010233
-0.024160 0.020655 0.009888
-0.010792 0.025357 0.009750
0.027035 -0.006773 -0.018474
-0.017450 0.033265 -0.017932
-0.029714 -0.016853 0.009454
0.032753 0.005433 0.005856
-0.022276 0.021482 0.009908
-0.031676 -0.010317 0.009337
0.025547 0.041703 -0.017274
0.013819 -0.005646 0.009951
-0.029843 0.039008 -0.011119
0.035391 -0.003387 0.002573
0.002477 0.044871 -0.017382
-0.025665 -0.034511 0.009436
-0.017749 -0.028005 -0.018337
-0.034054 -0.006705 0.009212
0.001356 -0.035228 0.009102
-0.006621 -0.002522 0.010119
-0.007820 -0.008999 0.010093
0.009612 0.046075 -0.017591
-0.027917 -0.043220 -0.017370
0.015976 0.025681 0.010267
0.035771 -0.034549 0.007147
-0.009983 0.017630 0.009984
-0.027174 0.003728 -0.017873
-0.032780 -0.014240 -0.017779
-0.022528 -0.007938 0.010127
0.030372 -0.001083 -0.018334
0.005688 0.019121 0.010036
-0.012249 -0.045759 0.007421
-0.001159 0.001764 -0.018393
0.010469 -0.041057 0.005721
0.009442 0.010207 0.010173
-0.036312 -0.007649 0.004570
-0.039156 0.003784 0.007412
0.022258 -0.007167 0.010291
0.016432 -0.039124 -0.013407
-0.015541 -0.044449 -0.018401
-0.034813 -0.013270 -0.012139
-0.011352 0.035468 0.009151
-0.030909 -0.018798 0.009285
0.030560 0.021835 -0.007863
0.027587 0.010174 0.011328
0.001598 -0.025561 0.009433
0.029829 0.003471 0.010844
-0.003984 -0.021263 0.009702
-0.030693 -0.029751 -0.008033
0.010147 0.006121 0.010143
-0.014521 -0.037772 0.009337
-0.009137 -0.042711 0.008698
0.030204 0.022444 -0.002409
0.042602 -0.031711 -0.014730
0.034929 -0.017945 0.010008
-0.019784 -0.012470 0.010151
0.018905 0.001488 0.010478
-0.042357 0.031970 -0.017092
0.030546 0.009043 -0.018261
0.002601 -0.036192 -0.018274
-0.002624 0.015760 -0.018409
-0.012130 -0.045433 0.007804
0.020146 0.040590 -0.018025
-0.010612 -0.020584 0.009958
-0.004829 -0.043889 -0.015266
-0.009271 -0.046339 0.000387
-0.023822 -0.032984 -0.018237
0.021762 -0.018151 -0.018577
0.027347 0.028567 -0.018164
-0.014759 0.001903 0.010285
-0.028096 -0.035861 0.008765
-0.031281 -0.013672 0.009336
-0.005991 0.037401 0.008992
-0.013237 0.021649 0.009931
0.006141 -0.019317 -0.018544
0.010255 0.028501 0.010014
0.018417 0.050590 -0.007058
-0.027165 -0.045931 -0.017012
-0.037097 0.007243 0.009151
-0.021724 -0.030470 0.009767
0.034030 -0.002877 -0.018329
0.023401 0.017432 0.010652
-0.007392 0.001138 0.010137
0.033064 0.009828 -0.009316
0.015019 -0.040872 0.001128
-0.002584 0.044994 0.006810
-0.025105 -0.048428 -0.017927
-0.016616 -0.024619 0.009958
0.036439 -0.005641 -0.017317
0.020757 -0.016720 -0.018490
-0.037073 0.019326 0.009502
0.024287 -0.001786 0.010631
0.012095 -0.005559 0.009880
-0.026435 -0.046856 0.000630
0.009236 0.038276 0.009544
0.003897 0.046865 -0.011581
-0.031959 0.038606 0.002731
0.004645 0.045704 0.008436
-0.029311 0.007718 0.009756
-0.016536 0.037260 -0.017638
-0.007869 -0.042725 0.008603
-0.040994 0.011353 0.001307
0.036253 -0.029476 0.009232
-0.033683 -0.018002 0.003127
-0.005331 0.026254 -0.018276
-0.010474 -0.020334 0.009955
0.014137 -0.020260 0.009371
-0.033557 -0.016234 0.008579
-0.012836 0.036923 0.009072
-0.008870 -0.027579 -0.018465
-0.039989 0.035947 -0.013707
0.016923 -0.040306 0.002627
0.008055 0.047407 0.006256
0.005381 -0.043021 -0.004760
0.035577 -0.002458 0.009034
0.013563 0.035773 0.009744
-0.015308 0.010177 -0.018214
0.018974 -0.008424 0.010084
-0.028975 0.039544 -0.000453
-0.036990 0.004891 -0.017528
-0.000036 -0.017226 0.009719
0.022771 0.039310 0.009360
0.028974 -0.033879 -0.017655
-0.026583 -0.046790 -0.012920
0.033087 -0.032632 0.008866
0.025426 -0.011383 0.010267
-0.024812 -0.032529 -0.018206
-0.026146 0.030724 -0.017681
-0.026611 -0.010172 0.009907
-0.031952 -0.019437 -0.017841
0.037370 -0.029987 0.009165
0.001091 0.001335 -0.018446
0.030873 0.016212 0.003500
-0.008789 0.012956 0.010092
0.004620 -0.010463 -0.018432
0.021767 -0.037193 0.007995
0.006147 0.046857 -0.013200
-0.006135 0.037238 0.009001
-0.016165 0.034023 -0.017937
-0.040297 0.009103 -0.009394
0.042354 -0.031610 0.006188
0.008231 0.040636 0.009368
-0.012954 0.034889 -0.018036
0.004503 -0.023787 -0.018459
0.016515 0.010128 0.010482
0.024117 0.048917 0.008369
-0.012342 -0.040589 0.009064
0.026483 0.041091 -0.009658
0.016107 0.043662 0.009223
0.032055 -0.026611 0.009484
0.018813 -0.015977 0.009694
0.025760 -0.038311 -0.007496
0.019497 0.047999 -0.017760
-0.011663 -0.042882 0.008788
0.025682 0.010122 0.011013
-0.023625 0.039899 -0.012125
0.006388 0.032278 0.009782
0.022302 0.050780 -0.011421
0.027972 0.026561 0.009554
0.005392 0.030785 0.009780
0.021902 -0.039224 -0.007797
0.030106 -0.024346 0.009597
-0.017713 -0.035721 0.009433
0.031080 -0.006624 -0.018351
0.028064 -0.031613 0.008987
0.042558 -0.030428 -0.008710
-0.025668 0.031490 0.009511
0.025909 0.038214 0.009102
-0.027331 -0.011328 0.009802
0.000726 0.019861 0.009845
0.034237 -0.030192 -0.017850
0.027311 -0.005513 0.010633
-0.030348 0.038936 0.004206
0.006312 -0.015651 0.009498
-0.011960 0.025670 -0.018190
-0.013793 -0.017409 0.010026
0.004242 -0.042506 0.005922
0.030170 0.024044 -0.008728
0.030120 -0.030750 -0.017894
-0.036651 0.024062 0.009577
-0.032204 -0.005580 0.009375
-0.010690 0.043539 -0.010358
-0.024977 -0.033353 0.009545
0.003711 -0.042379 0.006729
-0.017035 -0.012395 0.010160
0.014202 0.049380 0.002631
-0.004184 -0.034273 0.009339
0.023484 -0.038566 -0.010856
-0.014201 -0.025026 0.009915
-0.006396 0.031990 0.009337
0.008602 -0.042306 0.000862
-0.038486 0.001002 0.004050
-0.003782 -0.034240 0.009328
-0.042700 0.035677 0.006330
-0.029663 0.012035 0.009822
-0.024494 -0.028250 0.009785
0.012030 0.038987 0.009519
-0.018902 -0.048629 -0.009064
0.015182 0.020191 0.010337
0.008030 -0.042505 -0.001350
0.023801 -0.018538 -0.018559
0.006439 0.047439 -0.011672
-0.031307 0.008457 -0.017745
-0.009489 0.023569 -0.018231
0.025283 0.045401 0.003621
0.022293 0.040893 0.009297
0.031183 0.016007 -0.017784
0.010348 -0.008193 0.009713
-0.002022 -0.000734 0.010015
0.026815 0.028295 -0.018154
0.008670 -0.015294 0.009459
0.021991 0.050132 -0.007042
-0.009010 -0.009048 0.010106
-0.034981 -0.012150 -0.017394
-0.042944 0.019478 -0.005231
-0.022591 0.041041 -0.002244
-0.012335 -0.010927 0.010128
0.021100 -0.024211 0.009368
-0.024659 -0.004931 0.010034
0.016445 0.023272 0.010314
-0.031235 -0.000230 0.009543
0.009471 0.042616 -0.017966
-0.010261 0.010876 0.010144
-0.036379 0.003090 0.009046
-0.010472 -0.023151 0.009850
0.007319 -0.035177 -0.018258
-0.020084 -0.043761 -0.018481
-0.034378 -0.015205 -0.013578
0.023962 0.049278 -0.002692
0.005952 0.038079 -0.018054
0.032196 0.012375 -0.004937
0.012246 0.030433 0.009995
-0.042225 0.022537 -0.017165
0.027418 -0.025997 0.009428
-0.030213 -0.021199 -0.017893
0.019802 0.020469 0.010478
0.015578 -0.038115 -0.017421
0.024815 0.031363 0.009566
-0.001460 0.002004 0.010009
0.006928 0.013394 0.010142
0.017186 -0.020369 -0.018500
0.006731 -0.040811 0.008087
0.028785 -0.006525 0.010521
0.022107 -0.031729 0.008859
-0.016973 0.040523 0.008638
-0.020424 -0.047041 -0.018114
-0.040486 0.029266 -0.017224
0.004492 0.031392 0.009736
0.035938 -0.012729 -0.018348
0.012358 -0.032157 0.008918
0.005575 -0.009235 0.009664
0.029364 0.004738 0.010986
0.011685 0.042171 0.009296
-0.012126 0.032362 0.009374
0.014253 0.006428 0.010333
0.025218 0.045579 0.004592
-0.038738 0.019265 0.009382
-0.022635 -0.014635 0.010009
0.027734 0.034819 0.001310
0.023085 -0.022728 0.009531
-0.004104 -0.010758 0.009914
0.005525 -0.039487 -0.018026
-0.031290 0.007167 -0.017694
-0.008827 0.041224 0.008624
0.035697 -0.002018 -0.017111
0.016641 -0.038078 -0.017244
-0.014160 -0.028591 0.009802
0.002250 -0.022861 -0.018447
0.035799 -0.030163 -0.017834
0.004739 0.026553 0.009894
0.005067 -0.020796 0.009468
-0.009571 -0.004330 0.010184
0.018629 0.048776 -0.017376
-0.027081 -0.045565 0.000021
0.031563 -0.028137 -0.018054
0.036573 -0.007505 -0.017926
-0.038600 0.005330 -0.017402
-0.021801 -0.040518 -0.018432
0.032200 0.014850 -0.012949
-0.004209 0.018156 -0.018328
-0.022989 0.035098 -0.017702
0.025934 0.027183 0.009697
-0.000925 0.003683 -0.018403
-0.014279 0.038983 -0.017564
-0.028372 0.004384 0.009772
-0.017363 -0.047376 0.005606
-0.014987 -0.030049 0.009772
-0.038449 0.036946 -0.011222
0.021623 0.035225 0.009580
0.020552 -0.023209 0.009433
-0.015556 0.040481 -0.017260
-0.019957 -0.049028 -0.002925
-0.013153 -0.035361 0.009495
0.025714 0.044130 -0.004994
-0.000228 0.039300 0.009171
-0.037761 0.033366 0.009415
0.029743 -0.008638 -0.018379
-0.018888 -0.001107 0.010276
0.007151 0.044807 0.008916
0.032190 0.004827 0.010377
-0.034606 -0.000998 0.009161
-0.017182 -0.037790 0.009299
-0.045525 0.029349 0.004475
0.000496 0.044149 -0.017487
-0.041034 0.011554 -0.001649
0.041088 -0.022670 -0.016263
-0.029892 -0.028917 -0.018000
0.014073 0.023458 0.010227
-0.018173 -0.046199 -0.018242
-0.001471 -0.044117 0.005040
-0.028247 0.007476 0.009835
0.039368 -0.024236 0.009414
-0.003564 0.035723 0.009184
-0.010968 0.013272 -0.018329
0.012740 -0.029211 0.009038
-0.018649 -0.029123 -0.018346
0.008687 0.044908 0.008952
0.003195 0.031066 0.009703
0.014672 -0.023240 0.009236
-0.045112 0.033453 -0.001929
0.037356 -0.024196 -0.018128
-0.029902 -0.023554 -0.017950
0.016244 0.030626 0.010063
0.029320 0.027331 -0.003016
-0.020802 -0.046713 0.008466
0.023925 0.047583 0.008926
0.023336 0.039938 -0.018039
0.015272 -0.034780 0.008627
0.032653 -0.029703 -0.017919
0.012964 0.002494 0.010176
-0.026424 0.019161 0.009910
-0.040445 0.010409 -0.016299
0.009148 -0.007124 0.009713
-0.041688 0.032978 -0.017085
0.028285 0.023786 -0.018230
-0.016968 -0.017110 0.010093
0.032569 -0.035410 0.006885
0.035952 -0.030977 -0.017759
-0.023771 -0.020892 0.009947
0.029433 -0.015009 -0.018521
-0.023213 -0.015088 0.010000
-0.018429 -0.021699 0.010008
0.026997 0.028379 -0.018176
0.025381 0.045520 -0.005847
0.025122 0.014290 0.010956
0.025162 0.037464 -0.018095
0.028992 0.029759 -0.009924
0.002468 -0.018040 0.009580
0.017895 -0.040043 0.002781
0.023732 0.022995 0.010251
0.001819 -0.025889 -0.018443
-0.024865 -0.049507 0.007462
0.007212 0.035949 0.009683
0.000714 -0.011844 0.009787
-0.025734 -0.023149 -0.018062
0.007492 0.044847 -0.017752
-0.045508 0.034276 0.009041
0.028125 0.033428 -0.003287
-0.041410 0.013420 -0.005990
-0.021144 -0.040703 -0.018414
0.016212 -0.015548 0.009574
-0.026396 0.036461 -0.017453
0.006795 -0.022622 -0.018487
-0.028744 -0.028447 0.009119
0.025909 -0.022829 0.009614
0.012464 -0.005381 0.009903
0.020935 0.049357 -0.017409
0.000446 -0.044056 -0.008621
0.035442 -0.009554 -0.018291
0.036962 -0.010224 0.009462
0.017780 0.050432 -0.001404
0.019240 -0.017704 -0.018475
0.034562 -0.017647 0.010036
-0.027046 0.038553 -0.015752
0.011953 0.038714 0.009532
-0.025894 -0.045328 0.008718
0.010985 -0.041589 0.003167
0.012806 -0.032237 0.008910
-0.005504 -0.008543 0.009987
0.029817 0.025274 -0.007761
-0.021797 -0.040852 -0.018400
-0.029700 -0.034277 -0.010242
-0.023199 0.023991 0.009809
-0.002000 0.012700 0.009973
0.022337 -0.030296 -0.018139
-0.006712 -0.027854 0.009584
-0.003309 -0.038494 -0.018305
-0.024207 -0.048942 -0.002766
0.006697 -0.038090 -0.018162
-0.029199 0.039356 0.002283
0.014499 -0.023149 0.009243
0.014715 0.031690 0.009988
-0.037552 0.030096 0.009482
0.004000 -0.026983 0.009327
0.008734 0.039877 -0.018080
-0.006666 0.042324 0.008549
-0.011717 -0.029923 0.009685
-0.003629 0.023660 -0.018346
0.013629 -0.029370 0.009024
0.017458 0.020189 0.010405
0.020302 -0.037831 0.007750
-0.030285 0.003729 0.009607
-0.026900 0.030942 -0.017672
-0.019475 -0.009410 -0.018188
0.014559 0.037989 0.009603
0.027622 0.035260 0.001609
0.018212 -0.000643 0.010349
0.017822 0.026784 0.010271
0.018782 -0.002802 0.010302
0.020877 0.003219 0.010623
0.028637 0.029923 0.004067
-0.030225 0.007259 0.009678
-0.009323 -0.039956 -0.018384
0.024662 0.041271 0.009221
-0.024674 -0.020441 0.009925
-0.036677 0.037540 -0.007454
0.030100 0.023782 -0.005162
0.015825 -0.039311 -0.013152
-0.013072 0.023340 0.009834
-0.033165 -0.019544 -0.006782
0.036496 -0.035690 0.000840
0.034451 -0.019781 0.009950
-0.025081 0.009159 -0.017955
-0.009902 -0.037592 -0.018452
-0.008773 -0.028407 0.009633
-0.007339 -0.043440 0.008267
0.003012 0.032648 0.009632
0.027013 0.033116 0.009207
-0.031529 -0.005675 -0.017723
-0.003689 -0.023202 0.009715
0.003851 0.028362 0.009814
0.023083 -0.006496 0.010367
0.031139 -0.027702 -0.018087
0.021652 0.041013 0.009323
-0.008512 0.000425 0.010174
-0.012010 -0.046979 -0.008232
0.008171 -0.019532 -0.018527
0.025814 -0.005473 0.010563
-0.026694 -0.025199 -0.018044
0.029646 0.015699 0.009335
-0.018784 -0.048330 0.001307
-0.002505 -0.033978 0.009289
-0.028423 0.007014 0.009825
0.001279 -0.013891 0.009732
0.011142 0.011687 0.010276
-0.019671 -0.031165 -0.018291
-0.004762 -0.043585 0.007828
0.024321 0.045178 0.009083
-0.030016 -0.033977 -0.017602
0.027977 0.031206 0.008733
-0.012863 0.041773 0.008307
-0.002945 0.014949 -0.018379
0.037578 -0.022809 -0.018187
0.030183 0.006362 0.011157
0.034201 0.004622 -0.009276
-0.031988 -0.014156 0.009211
0.033564 0.003391 0.001135
-0.042455 0.035435 0.007549
0.011051 -0.041771 -0.003090
-0.021988 0.037182 -0.017559
-0.000713 0.036977 -0.018048
0.018773 -0.019999 0.009504
-0.018893 -0.047846 0.005364
0.027678 -0.015266 -0.018484
0.043027 -0.030400 0.008509
0.037900 -0.019648 0.009798
-0.014055 0.007799 -0.018245
0.038414 -0.031154 -0.017661
-0.034079 0.038136 -0.006990
0.001587 -0.042516 0.007528
0.025151 0.032848 -0.018110
0.024177 0.015826 0.010798
-0.002459 -0.042008 0.008485
-0.015931 -0.028843 0.009828
0.039824 -0.026596 0.009281
-0.040866 0.036722 -0.004371
-0.043296 0.035781 -0.011134
-0.014406 -0.041262 0.009046
-0.029679 -0.028906 0.008843
0.018985 0.043282 -0.018023
-0.024396 0.022609 0.009850
-0.035537 0.003797 -0.017508
0.035275 -0.032217 -0.017607
-0.043570 0.024228 0.008861
-0.014118 -0.018596 0.010026
0.011502 -0.041565 -0.006759
0.009509 0.018748 0.010184
0.028335 0.000336 0.010751
0.016529 0.045009 -0.017901
-0.019566 0.034849 0.009275
0.008660 -0.022024 -0.018533
-0.024406 -0.041895 -0.018319
0.039097 -0.016556 -0.017039
0.013235 -0.016548 -0.018488
0.002352 -0.040071 0.008684
0.001197 0.046369 0.004774
0.018828 0.050689 -0.007023
-0.013085 0.041424 0.008535
-0.031326 -0.027155 -0.017842
0.034207 -0.004434 0.009814
-0.005335 -0.019214 0.009812
-0.028319 -0.040242 -0.011716
0.021203 -0.021336 0.009552
0.042879 -0.032059 0.008122
0.005996 -0.025983 -0.018463
0.033969 -0.004497 0.009844
0.006538 -0.023264 -0.018500
0.016601 -0.034389 0.008600
-0.002192 0.036260 -0.018070
0.019432 -0.019900 -0.018503
-0.009124 -0.037582 0.009251
-0.028358 0.032185 -0.017633
-0.024840 -0.039927 0.009123
0.033531 0.005513 -0.017917
0.011884 -0.040682 0.005806
0.022629 0.044563 0.009136
0.020267 -0.012945 0.009879
0.008072 0.024871 0.010034
0.033011 -0.035474 -0.011298
-0.041736 0.036274 0.003176
-0.015334 0.039131 -0.017533
0.022319 0.045430 0.009113
0.030056 -0.029238 -0.018002
0.014967 -0.004491 0.010055
0.039029 -0.027909 0.009279
0.006765 0.007764 0.010068
-0.034365 0.022704 0.009582
0.021889 0.049955 -0.004199
-0.029397 0.039335 -0.004917
-0.008543 0.025334 0.009738
0.013492 0.036537 0.009713
0.001098 -0.013534 0.009735
-0.032913 -0.019774 0.008151
-0.010960 0.000901 0.010220
0.028506 -0.033821 0.008711
0.002989 -0.014505 0.009643
-0.011619 0.031966 0.009401
0.026558 -0.003573 0.010697
-0.003833 -0.040012 -0.018363
-0.028762 -0.037807 -0.018088
-0.014614 -0.026678 -0.018359
0.027052 -0.032948 -0.017877
-0.002641 0.021323 0.009811
0.036379 -0.034363 0.007248
0.028851 -0.013946 -0.018438
-0.005463 0.042885 -0.017372
0.009012 -0.021234 -0.018485
0.000652 -0.027564 0.009452
0.003191 0.022393 0.009910
0.032441 -0.028332 0.009343
-0.030133 -0.032162 -0.002711
0.031510 -0.036607 0.003719
0.001690 0.041067 -0.017920
-0.012612 0.033159 0.009326
0.029192 -0.016556 -0.018519
0.004338 -0.031318 0.009191
-0.042934 0.025643 0.009339
-0.005764 -0.005852 0.010067
0.016994 -0.021673 -0.018471
-0.015906 -0.038351 0.009286
-0.032794 -0.002230 0.009354
0.030250 0.022281 -0.002664
0.014141 -0.014091 0.009580
0.026478 0.006553 0.011005
0.017039 -0.040243 -0.007568
-0.020007 -0.029037 -0.018302
0.021690 0.043347 0.009220
-0.022310 -0.022817 0.009998
0.000323 -0.035222 -0.018396
0.031066 0.014028 0.005410
0.033747 0.002115 -0.018218
-0.018542 0.026362 0.009728
0.027949 0.023732 0.009710
0.034815 -0.001467 0.006202
-0.020748 0.039513 -0.017066
0.025414 0.045248 -0.000660
-0.020035 0.040960 0.006783
0.014650 -0.026776 -0.018401
-0.013973 -0.013087 0.010090
-0.013683 -0.025194 0.009895
0.026946 0.000488 0.010847
-0.010776 0.032172 0.009381
0.020046 -0.019693 -0.018505
-0.003294 0.013765 0.009976
-0.010461 -0.036882 0.009327
0.014732 -0.037273 0.008435
-0.033271 0.023146 0.009649
0.001924 0.000170 -0.018424
0.031162 -0.001412 -0.018325
-0.036671 -0.000986 0.008935
-0.033204 0.030391 -0.017482
-0.015486 -0.011192 0.010185
-0.026227 -0.046392 0.008491
0.004694 -0.028469 0.009291
-0.035599 0.026596 0.009565
-0.006307 -0.045871 -0.002190
0.009506 -0.019749 0.009362
-0.000895 -0.021277 0.009642
-0.020619 -0.022635 0.009984
-0.037654 0.005293 -0.017490
0.010522 0.013814 0.010244
0.009623 -0.016397 0.009420
-0.008464 0.037187 -0.017995
0.008365 -0.042345 0.001501
0.027758 0.034314 0.003764
-0.023889 0.002153 0.010107
-0.034694 0.035080 -0.017254
-0.041372 0.013347 -0.006546
-0.032675 -0.021599 -0.009278
0.004742 -0.036917 0.008880
-0.021412 -0.025817 0.009926
-0.029629 -0.034286 -0.001060
-0.022066 -0.028234 0.009867
0.032762 -0.030165 -0.017885
-0.023551 -0.031017 -0.018198
0.019167 -0.003706 0.010291
-0.014852 -0.034566 0.009549
-0.039143 0.032666 -0.017215
0.021594 0.040078 0.009357
-0.015456 -0.044860 0.008584
-0.028766 -0.003191 0.009728
0.001804 -0.002111 -0.018455
0.026819 0.037503 0.007893
0.010253 0.029113 0.009990
-0.032954 0.002195 0.009409
-0.026168 -0.013856 0.009871
-0.026329 -0.048993 -0.015141
-0.012754 -0.012171 0.010091
0.018509 -0.031524 0.008817
0.001523 0.038871 0.009242
0.019803 -0.039729 0.002401
0.015305 0.000139 0.010241
-0.024571 -0.047565 -0.018378
0.034817 -0.001037 0.000098
0.008700 0.003835 0.010039
0.040443 -0.021318 0.003264
0.029606 0.016202 0.009448
-0.025325 -0.003857 0.009995
0.006897 -0.042594 -0.008306
0.041849 -0.026692 -0.006328
-0.026257 -0.024987 -0.018060
0.024111 0.039801 0.009281
-0.027083 -0.021280 0.009740
0.011704 -0.018504 0.009354
-0.027213 -0.014831 0.009783
-0.005649 0.027125 -0.018262
0.041373 -0.031325 -0.017320
0.004446 -0.024989 -0.018447
0.037438 -0.018947 0.009847
0.004129 -0.043236 -0.006615
-0.019635 0.010397 0.010173
0.003033 -0.043552 -0.005033
-0.039039 0.032088 0.009485
0.014235 -0.030670 0.008942
0.003174 0.046250 -0.012321
-0.029893 0.030125 0.009568
-0.015352 -0.047700 0.000758
0.032963 -0.023319 0.009715
0.030901 0.017005 0.000634
0.029949 0.013562 -0.018240
-0.016853 -0.028016 -0.018353
0.020697 -0.014486 0.009817
-0.033544 0.038222 -0.010667
-0.003182 0.036407 -0.018053
0.006481 0.047714 -0.004421
0.042411 -0.030859 0.006337
0.024481 0.040533 0.009219
0.025350 0.030706 0.009534
-0.022480 -0.033195 0.009634
0.002247 -0.006918 -0.018436
0.013987 0.043115 -0.017984
-0.019178 -0.046340 0.008443
0.029205 0.025727 -0.017224
-0.043550 0.024204 -0.016639
-0.014136 -0.024119 0.009958
0.041533 -0.026769 0.009047
0.026877 0.039228 -0.008912
-0.011732 -0.019127 0.009987
0.019270 -0.029482 0.008973
0.027481 0.034639 0.007434
-0.007944 -0.041393 0.008855
-0.027468 0.016927 0.009940
0.041886 -0.030526 -0.017636
0.008051 -0.042366 -0.006159
-0.023670 -0.044662 -0.018468
0.007177 0.008170 0.010097
-0.011290 -0.041137 0.008971
-0.017212 -0.005849 0.010264
-0.013477 0.035102 -0.018018
0.013733 0.047203 -0.017585
-0.018545 0.034718 0.009289
-0.004784 -0.020722 0.009741
-0.032302 0.038573 -0.008567
0.017984 0.050465 -0.007109
0.015174 -0.025894 0.009129
-0.024349 0.008995 0.010081
0.019960 0.029948 0.010018
0.003421 0.042118 -0.017870
-0.013828 -0.038321 -0.018451
0.031234 0.016353 -0.017590
0.035470 -0.002938 -0.002488
-0.030643 -0.027664 0.008535
0.021869 0.032787 0.009687
0.011652 -0.041569 -0.005162
0.026009 0.017449 0.010652
-0.006557 -0.006033 0.010086
-0.031330 -0.025494 -0.017929
-0.033690 -0.008067 -0.017645
0.020622 0.049501 -0.017220
0.034252 0.003735 -0.007849
0.026971 0.015638 0.010895
0.019906 0.025659 -0.018267
-0.012498 -0.046244 0.005843
0.022307 0.022976 0.010392
-0.025433 0.039166 0.008167
0.031308 -0.036056 0.005612
-0.032674 0.003134 0.009464
0.026673 0.039546 0.002828
-0.041080 0.027650 0.009461
-0.034797 -0.014109 -0.016811
0.033205 0.004000 0.004343
0.035716 -0.000903 -0.016121
0.028416 0.032129 -0.003884
-0.032205 0.014207 0.009663
-0.008727 0.004383 0.010181
0.013405 0.005095 -0.018407
-0.032953 -0.017426 -0.017772
0.013494 0.037141 0.009661
0.009466 -0.032976 0.008953
-0.014130 -0.021357 0.009994
-0.001667 -0.000552 0.010009
0.026916 -0.016554 -0.018564
-0.022757 -0.048717 -0.012170
-0.009437 0.028630 -0.018184
-0.031548 0.036326 -0.017234
-0.001857 -0.015292 0.009805
-0.013211 -0.045802 -0.016419
-0.033331 -0.016330 -0.017740
-0.037365 0.034721 -0.017149
0.003571 0.018601 0.009977
-0.036206 -0.002138 0.008998
0.020233 -0.029356 0.009026
-0.030799 -0.022109 0.009102
-0.019974 -0.047800 -0.014222
0.012404 -0.040380 0.006606
-0.026626 -0.027001 -0.018071
0.007308 -0.018626 0.009422
0.010131 0.044871 -0.017806
-0.009933 0.031388 -0.018107
-0.021654 -0.005997 0.010186
0.034043 0.000729 0.004338
0.004298 -0.030677 0.009207
-0.037556 -0.002728 0.003286
-0.018154 -0.004072 0.010249
-0.041550 0.019719 -0.017243
0.031921 0.005119 -0.018264
0.017974 -0.025769 0.009188
-0.019033 0.037418 -0.017560
0.007105 -0.042467 -0.010639
-0.037875 0.026086 0.009542
-0.000145 0.010210 0.009976
-0.034544 -0.015162 -0.017010
0.017926 0.047369 0.008916
0.009045 -0.007554 0.009691
-0.032258 -0.016736 -0.017817
-0.041283 0.026846 -0.017122
-0.005711 0.013421 -0.018353
-0.009765 -0.042352 0.008781
-0.017906 0.023614 0.009856
0.019740 -0.024874 0.009269
-0.000997 0.004010 -0.018396
-0.018146 -0.046964 -0.016641
0.029367 0.018065 0.009774
0.029836 0.023886 0.001092
-0.025158 0.029208 -0.017757
0.032700 0.011145 -0.016823
0.032561 0.001475 0.010311
-0.009644 0.042167 0.008470
-0.015566 0.038203 -0.017569
-0.031713 -0.017357 -0.017831
0.011556 -0.019754 -0.018510
0.028987 0.013623 0.010496
0.023644 0.046501 0.009084
0.014322 0.019883 0.010316
0.023315 0.047143 0.009067
-0.020551 -0.012519 0.010121
0.003988 -0.030175 0.009265
-0.022573 -0.028548 -0.018204
0.003188 0.026439 0.009835
0.033327 -0.001492 0.009948
-0.041180 0.017944 0.009150
-0.015312 0.034188 -0.017951
0.032263 0.007854 0.003181
-0.033890 0.024900 0.009657
-0.032960 0.023076 -0.017592
0.014816 0.001103 0.010243
-0.024722 -0.011131 0.009998
-0.017948 0.020839 -0.018150
-0.035736 -0.004122 0.009029
0.008571 0.007888 0.010142
-0.025127 -0.042298 0.009028
0.019864 -0.021765 0.009464
0.002973 0.039145 0.009264
-0.013975 -0.044444 0.008548
-0.012634 -0.047125 -0.009832
0.013329 0.046806 0.008931
0.010879 -0.039337 0.008235
-0.017480 -0.028481 -0.018376
0.002894 0.042632 0.008971
0.016065 0.005811 0.010425
0.007417 -0.042505 -0.006812
0.024734 -0.003331 -0.018398
-0.016686 -0.029332 0.009793
0.023621 -0.036872 -0.016280
0.021194 0.015449 0.010690
-0.014408 -0.046314 0.007443
0.031146 -0.017546 0.010081
0.004554 0.039101 -0.018056
0.020281 -0.039555 -0.006729
-0.021792 -0.020090 0.010017
0.004406 0.021834 0.009965
-0.031124 -0.022914 0.009063
-0.032983 0.004926 0.009446
-0.032346 0.033947 0.009347
0.032447 0.007461 0.002492
-0.004599 -0.045342 -0.004234
-0.030474 -0.023337 -0.017926
-0.037165 -0.003762 -0.004363
0.011459 0.003716 0.010142
-0.039088 0.036202 -0.013236
-0.013199 -0.041209 -0.018439
-0.007294 -0.006238 0.010101
0.015742 0.044049 0.009188
0.031684 0.006000 -0.018247
0.019736 0.028691 0.010115
-0.028691 -0.038243 0.000459
0.000490 -0.029320 0.009401
0.036253 -0.006158 0.001699
-0.009037 -0.022794 0.009824
-0.003747 -0.043547 -0.015961
-0.030349 -0.027680 -0.017973
0.006822 0.045206 0.008836
0.021015 -0.020311 -0.018494
-0.023512 -0.001238 0.010099
-0.015067 0.034901 -0.017978
0.016763 0.021499 0.010363
-0.003682 -0.033709 0.009348
0.020347 0.038559 0.009446
0.035668 -0.002621 -0.017557
0.006647 0.010185 0.010121
-0.023746 0.039748 -0.013024
0.030618 -0.037255 -0.007296
-0.037942 0.029627 0.009510
0.008801 -0.036674 0.008779
-0.026819 -0.040756 -0.018312
0.003810 -0.043364 -0.004438
0.005099 -0.039845 0.008608
-0.017369 0.036765 -0.017696
0.015031 0.033296 0.009914
0.037332 -0.031669 -0.017593
-0.023724 -0.039814 0.009144
0.031162 -0.005411 -0.018344
-0.003782 0.016863 -0.018356
0.037983 -0.033230 0.008354
0.029050 -0.010801 -0.018347
-0.005336 0.039819 -0.017771
-0.017240 0.014660 0.010114
0.042147 -0.029726 0.009068
0.037120 -0.033482 -0.016298
-0.018834 0.033291 -0.017879
-0.020104 0.016952 0.010068
-0.023357 0.034426 -0.017722
0.005454 -0.027437 -0.018455
-0.042940 0.019686 -0.008521
0.028714 -0.012157 0.010311
0.025649 0.037431 0.009275
-0.009037 0.019283 0.009950
0.020349 0.000961 0.010541
-0.041495 0.015510 0.008727
0.036593 -0.010014 -0.018223
0.010035 0.003392 0.010080
0.016427 0.015662 0.010465
0.015451 0.028673 0.010147
-0.017454 0.041477 0.007143
0.002218 0.014164 0.009957
0.039910 -0.020403 -0.017354
-0.035066 0.029864 -0.017401
-0.033367 -0.004783 0.009292
0.003212 0.026757 0.009825
0.015057 -0.019530 0.009434
0.020157 -0.027583 0.009157
-0.021256 -0.025028 0.009946
0.029021 -0.037619 -0.004920
0.032571 0.011657 -0.007811
-0.045216 0.029251 -0.012622
-0.014858 -0.012487 0.010117
-0.003994 -0.032287 0.009424
-0.045919 0.031750 0.004940
-0.042418 0.017252 -0.003410
0.009637 -0.012621 0.009547
0.023510 0.003681 0.010832
-0.018676 0.021349 0.009967
0.028627 -0.026951 0.009364
0.024281 0.048060 -0.016813
0.017404 0.044616 0.009154
-0.037167 0.029943 -0.017346
-0.014813 0.032290 0.009409
-0.014514 0.000505 0.010282
-0.028470 0.007844 -0.017819
0.024474 0.044520 0.009086
-0.028561 0.003079 -0.017824
-0.020501 0.010162 0.010141
0.003330 0.018839 0.009968
-0.039602 0.009554 0.009006
0.018147 0.006974 0.010550
-0.032673 0.004364 0.009458
0.028805 0.030819 -0.013360
0.036930 -0.027528 0.009406
0.032658 -0.003035 0.010019
-0.033036 -0.007018 0.009298
0.011736 0.041002 0.009368
-0.028140 0.009135 0.009895
-0.022177 0.009873 -0.018054
-0.022737 -0.031829 0.009704
-0.016178 -0.044756 -0.018403
0.019214 -0.018942 -0.018508
-0.036882 -0.004487 0.008101
0.012299 -0.022874 0.009265
