0.037255 -0.016091 -0.021549
0.066909 -0.007469 0.010682
-0.015146 0.043931 0.012924
0.028586 -0.028597 -0.019717
0.015889 -0.037280 -0.017071
0.001388 -0.041410 0.013503
-0.041636 0.032458 0.011013
-0.015354 0.017127 0.014274
0.033970 -0.027602 -0.001910
0.048934 -0.019148 -0.003249
-0.031971 -0.056458 0.004474
0.039811 0.044529 0.007131
-0.006246 0.001418 0.014972
-0.057999 -0.005593 0.007961
-0.035761 0.035113 0.011515
0.013444 0.060944 0.008674
-0.017324 -0.054789 -0.015395
0.029160 -0.009426 0.015516
-0.034176 0.029563 0.011978
0.026183 0.067020 0.014405
0.007010 -0.040959 0.013542
-0.056779 0.023357 0.011078
0.022998 0.015379 -0.022146
-0.000715 -0.046345 -0.014458
-0.026398 -0.034175 0.013349
0.065766 -0.009332 0.000343
0.004406 -0.043590 -0.016190
-0.043124 -0.030919 -0.019986
0.024245 0.002454 0.015810
0.018512 -0.013172 -0.022328
-0.026135 -0.052143 0.012725
-0.058074 -0.000561 0.011414
-0.005994 -0.035531 0.013809
-0.049410 0.028524 0.010518
0.007518 0.041375 0.014970
-0.058594 0.009491 0.011540
-0.064531 0.005582 -0.011752
0.022233 0.034602 0.015714
-0.042993 -0.031417 -0.019468
-0.048188 -0.026308 -0.011989
-0.027783 -0.004107 0.013840
0.051873 0.018717 -0.017718
-0.025260 -0.051904 -0.021308
-0.025956 -0.058730 0.012384
-0.014346 -0.053671 0.006324
-0.000280 0.021132 0.015058
-0.008772 -0.050422 -0.017406
-0.010932 -0.042710 0.013370
0.018337 -0.030428 0.014302
0.033726 -0.026702 -0.018810
0.032298 0.058011 0.007958
-0.050828 -0.003128 -0.021415
-0.025749 0.005120 0.013817
0.051385 -0.006111 0.015886
-0.015039 -0.054069 0.008104
-0.031150 0.038270 0.009972
-0.053118 0.019608 -0.021629
-0.053103 -0.006913 -0.021492
0.064858 -0.005054 0.015103
-0.035243 -0.052010 -0.011625
-0.002262 0.052876 0.012864
0.050470 -0.017207 -0.018199
0.003471 0.016650 0.015267
0.059909 0.007585 -0.000889
-0.068606 0.015329 0.010019
0.035760 0.038617 0.015443
-0.022310 0.039153 0.012631
-0.015645 -0.010635 -0.021854
-0.040122 -0.040358 0.007180
0.039682 0.009391 0.016016
0.033083 0.053021 0.014699
0.024409 -0.032979 -0.000789
-0.045529 0.004513 -0.021092
-0.039619 -0.041080 0.007502
0.051279 -0.017817 -0.002234
0.040003 -0.024219 -0.003632
-0.057230 -0.007428 0.007424
-0.040973 -0.001129 -0.020612
-0.026250 -0.059308 0.005224
-0.031717 0.021478 0.012705
0.021998 -0.034287 -0.001643
-0.061415 0.001454 -0.014788
0.023842 0.020548 0.015896
0.056592 -0.014436 -0.008513
-0.058736 -0.003787 -0.014546
0.008097 0.014628 0.015444
-0.026496 0.033891 0.012540
0.021759 0.065158 0.010644
-0.024571 -0.045170 0.013007
0.028627 0.065925 -0.004288
-0.063038 0.004792 -0.015384
0.001121 -0.036458 0.013825
0.034198 0.056091 -0.006715
-0.028501 -0.058444 -0.004422
-0.030743 -0.052415 -0.020526
0.058510 -0.012319 -0.018052
-0.005404 0.035840 0.014313
-0.006349 0.029704 0.014536
-0.032405 -0.029229 0.013116
-0.049370 0.014142 0.011921
0.011730 0.058669 -0.006051
-0.030135 -0.032012 0.013185
0.031168 0.061633 -0.005590
0.034440 0.049727 0.014926
-0.060730 0.022494 0.000862
-0.011602 -0.031075 0.013952
-0.061100 0.021177 0.010906
-0.036915 -0.046894 -0.012492
0.063296 -0.008868 -0.018148
0.006780 -0.042451 -0.009580
-0.060249 0.020487 -0.021919
0.026841 -0.027186 0.014636
0.016260 0.051806 0.014904
0.053407 0.018895 0.007564
-0.027998 -0.059565 -0.015956
0.054370 -0.003134 0.015919
-0.052289 -0.016645 0.009064
0.042294 -0.013207 0.015542
0.051688 0.021074 -0.013903
0.030465 0.063170 -0.008791
0.024980 -0.000148 -0.022400
-0.003369 -0.047871 0.011803
-0.050236 -0.022517 -0.001640
-0.008188 -0.041399 0.013493
-0.002242 -0.047352 0.004044
0.007533 0.052000 0.014324
0.027694 0.065775 0.010992
-0.007714 -0.050147 0.011224
0.051827 -0.012444 0.015674
0.039670 -0.024010 -0.015228
0.062349 -0.003208 -0.018162
-0.012089 0.044479 0.013166
-0.024007 -0.057512 -0.020591
-0.041574 -0.039196 -0.011945
0.025599 -0.027010 -0.020617
-0.045227 0.030002 -0.019431
0.017996 0.006055 -0.022418
-0.069950 0.017223 0.008567
-0.000544 -0.045614 -0.018254
0.049085 0.027057 -0.008837
0.028832 0.065292 0.005731
-0.066004 0.009870 0.009461
0.036764 -0.011077 0.015534
0.033067 0.046001 -0.019462
-0.027846 -0.046194 0.012838
-0.039113 -0.022760 0.012735
-0.015060 0.034908 0.013581
-0.017977 -0.036631 0.013580
-0.012266 -0.052411 -0.010448
0.034483 0.053592 -0.017115
0.044249 -0.017416 -0.020797
-0.001551 -0.046920 0.005204
0.039766 -0.024483 0.002370
-0.029384 0.036767 0.012062
-0.044661 -0.033850 -0.011732
0.030236 0.063549 -0.008397
-0.020348 -0.056849 0.000957
-0.024219 -0.056802 -0.021356
0.034756 0.049413 0.014883
-0.058570 -0.006433 -0.005077
0.004077 0.055510 0.013667
-0.020456 -0.052169 0.012854
-0.000876 -0.029305 -0.021923
0.021857 0.063486 -0.017437
-0.006751 -0.043381 -0.021113
0.036464 -0.016201 0.015328
0.014227 0.058691 -0.019869
0.041736 0.040071 0.010328
-0.021711 -0.057256 -0.008645
-0.007513 -0.036378 0.013758
0.028313 0.016790 0.015969
0.041414 -0.021194 -0.019874
0.065655 -0.006079 0.014592
0.019324 0.001277 0.015679
-0.059850 0.000091 0.010903
0.042322 0.040072 0.004024
0.023904 -0.000704 0.015729
0.015124 -0.038055 0.003056
-0.041778 0.032795 0.009920
-0.069775 0.016835 0.009563
-0.024598 0.026347 0.013078
-0.034731 -0.017163 -0.019796
-0.069984 0.016844 0.008055
-0.010663 0.047516 -0.018713
0.021435 0.030731 0.015763
0.027938 -0.024079 0.014823
-0.052344 -0.016206 -0.014546
0.035925 -0.024952 -0.019447
0.021207 -0.012360 -0.022219
0.062005 -0.011167 0.016052
-0.033524 -0.032603 0.012881
-0.040564 -0.005471 -0.020507
0.010794 0.031522 0.015435
0.066020 -0.009424 0.005589
0.020822 0.059739 0.014756
-0.047660 0.009306 -0.021312
0.025985 -0.031237 -0.018556
0.008830 0.057274 -0.014367
-0.041231 -0.031650 0.011971
-0.000350 -0.046125 -0.016580
0.040193 -0.024262 0.001696
0.005558 -0.043236 -0.004361
-0.046708 0.014001 0.012015
0.000953 0.049993 0.013911
-0.028889 -0.058781 0.004730
-0.036226 -0.033191 -0.019934
-0.009956 -0.051366 0.006315
0.060060 0.001163 0.015788
0.007020 0.050539 -0.020290
-0.037879 0.003108 0.013007
-0.000626 -0.045023 -0.020367
-0.033035 -0.049914 0.012102
-0.066900 0.016797 -0.022098
0.032228 0.055769 0.013904
-0.055598 -0.000571 -0.021718
0.006087 0.054952 0.013925
-0.019528 0.032241 0.013323
-0.007899 -0.038743 0.013615
0.024270 -0.012144 -0.022188
0.021545 0.058934 0.014815
0.027913 0.062773 -0.018980
0.036113 0.050947 0.008546
-0.023876 0.035851 0.012706
0.058837 -0.013202 -0.006813
0.024063 -0.033154 -0.001185
0.023692 -0.032322 0.014230
0.049155 0.026196 -0.011948
0.019342 -0.020730 0.014875
0.061580 -0.008131 -0.019819
0.051141 0.024046 -0.006038
-0.022788 -0.009404 0.014119
0.036207 0.051975 -0.009161
0.026877 -0.031378 -0.015148
-0.031928 -0.017013 0.013524
0.007502 -0.042220 0.002578
0.055386 -0.015158 -0.007162
-0.050374 0.018657 0.011633
0.029572 -0.027013 0.014709
0.028675 0.063213 0.013450
-0.000114 0.045047 0.014145
-0.038423 -0.044732 0.002584
0.036974 -0.025830 -0.004352
-0.003064 -0.005148 -0.022355
0.033376 0.057329 -0.000655
0.005127 -0.039671 0.013634
0.052900 0.014668 0.015591
0.057374 -0.014512 0.000294
-0.021692 -0.013052 0.014143
0.017646 0.006220 -0.022339
-0.039694 -0.042890 -0.001306
-0.034573 -0.033060 0.012759
0.027632 -0.007574 0.015551
0.017870 -0.001512 0.015614
-0.020602 0.003101 0.014154
-0.053123 0.026756 0.009074
0.031711 0.047553 0.015318
0.047990 -0.020022 0.014531
0.015047 -0.015340 -0.022232
0.047220 -0.019948 -0.006296
0.040979 -0.022681 -0.017052
-0.027118 0.032656 0.012551
0.049461 -0.018555 -0.009077
-0.037015 -0.045923 0.007402
-0.041755 -0.039115 -0.003662
-0.040417 -0.040102 -0.012681
0.001301 0.053586 -0.016817
-0.031172 -0.024436 0.013402
0.022186 -0.033338 -0.018461
0.025898 0.065268 0.014719
0.038087 -0.025059 -0.010227
0.045186 -0.020324 -0.017957
0.011914 0.036776 0.015318
-0.037304 -0.016258 0.013122
0.064818 -0.011055 0.009471
-0.052564 -0.016348 -0.012920
0.055621 -0.015039 -0.007168
0.030438 0.056855 -0.019025
0.005960 0.014614 0.015398
0.034661 0.047981 -0.019056
0.035143 0.054202 -0.006350
-0.032642 -0.042596 0.012524
-0.021705 -0.046327 0.013102
-0.000799 0.031822 -0.021456
-0.053366 0.003786 0.011960
-0.013508 0.006936 0.014577
-0.036157 -0.042632 -0.020269
0.012319 0.000762 -0.022430
0.025074 -0.019681 -0.021716
0.021494 0.060199 0.014813
0.033822 0.054666 0.010324
0.036650 0.050307 -0.010964
0.016024 0.002739 0.015650
0.049614 0.024590 -0.015127
0.010722 0.017952 0.015568
-0.018866 0.033345 0.013311
-0.066952 0.016456 -0.022028
0.032091 0.058150 -0.016590
0.032088 0.013393 -0.021843
0.026341 -0.003076 -0.022375
-0.029876 -0.042018 0.012845
0.050807 0.000416 0.015965
0.015020 0.056126 -0.020249
0.060517 0.005089 -0.010708
-0.021699 0.029488 -0.021130
-0.011286 -0.050607 -0.020759
0.036150 -0.023264 -0.020050
-0.011482 -0.046230 0.013201
-0.019050 0.039822 0.012890
-0.017776 -0.055534 0.000388
0.008362 -0.041022 -0.017975
-0.057235 -0.008744 0.000988
0.055353 0.012934 0.014384
-0.029559 -0.041600 0.012885
0.061709 0.001064 -0.015996
0.032567 0.058474 0.002552
-0.018528 0.044713 0.011757
0.023380 0.063796 -0.012639
-0.057457 -0.008627 -0.002094
-0.046435 -0.028840 0.005042
-0.036167 -0.016893 0.013179
0.043772 -0.022509 0.008822
-0.042870 0.029005 -0.021078
-0.008792 0.010167 -0.022049
-0.040404 -0.026029 0.012467
-0.033036 0.023897 0.012424
0.011365 -0.039959 -0.014299
-0.057635 0.002872 0.011590
0.034715 -0.013483 -0.021791
0.056805 -0.014720 -0.002102
-0.030035 -0.058473 -0.006566
-0.031734 -0.030334 0.013108
-0.025918 -0.059475 0.010604
-0.005683 -0.047168 -0.020780
-0.021883 0.041871 -0.018033
0.024913 0.062939 -0.019825
0.016350 -0.016310 0.015049
0.042454 -0.019052 0.015280
0.048453 0.027253 0.010574
-0.022148 0.007165 0.013972
0.034448 0.054267 -0.013619
-0.009287 0.005022 0.014795
-0.003293 -0.042662 0.013408
0.062432 -0.011473 -0.001298
0.062406 -0.008425 -0.019111
-0.013441 -0.010760 0.014573
0.042853 0.019894 -0.019969
0.059424 -0.013612 0.015492
0.019183 0.002399 -0.022371
-0.055192 -0.007207 -0.020976
-0.046699 -0.029370 -0.000659
0.026781 -0.008963 0.015496
0.000092 -0.046097 -0.007262
-0.040150 -0.042085 -0.002024
0.031544 -0.028776 -0.010048
-0.034761 0.013381 0.012894
0.008459 0.043050 0.014938
0.002998 -0.044231 0.012914
-0.014519 0.029521 0.013881
0.055645 0.015605 -0.000772
0.024116 0.055795 0.015062
-0.033853 -0.052194 -0.013248
0.066602 -0.007391 -0.014641
0.001345 0.028640 0.014996
0.001999 -0.045044 0.009011
0.026530 0.024171 -0.021728
-0.054262 -0.012015 -0.015800
0.043404 0.036127 -0.016537
0.044784 0.034582 -0.012417
0.044056 0.035087 -0.015838
-0.020331 -0.056333 -0.014323
0.061231 0.003767 -0.011089
0.052307 -0.017560 0.003530
0.055483 -0.015656 0.002157
-0.023597 -0.058405 0.002373
-0.069360 0.015228 -0.002544
-0.024287 -0.016353 -0.020887
0.036369 0.046218 0.015023
-0.017577 -0.025702 0.014005
0.035071 0.045431 -0.019153
-0.038022 0.034864 0.008531
0.036983 0.050209 0.003955
-0.027272 0.015596 -0.021057
-0.022547 -0.057656 -0.011107
0.012264 -0.007649 0.015328
-0.039750 -0.029759 0.012313
0.032360 -0.015274 0.015293
-0.012791 -0.052805 -0.007536
0.027599 -0.031129 0.001694
-0.050223 -0.018974 -0.017720
-0.014579 0.017236 0.014316
-0.001617 0.053423 0.012570
-0.000445 -0.033299 0.014009
0.036480 0.049526 -0.017235
-0.032347 0.031587 -0.020874
-0.050935 -0.020903 0.001798
-0.055242 0.013046 0.011678
0.012078 0.059404 0.001738
-0.065293 0.016509 0.010890
0.003051 0.038205 0.014824
-0.047262 -0.026688 0.007134
-0.016285 -0.014384 0.014357
-0.000366 -0.043545 0.013356
-0.053174 -0.001376 -0.021589
0.058528 -0.009327 -0.020429
0.045153 0.034424 0.007088
0.040988 0.033958 -0.019041
0.054048 0.015744 0.013916
0.030291 0.029495 0.015829
0.000608 0.018727 0.015150
-0.069054 0.014578 -0.010174
0.048551 -0.018059 0.015450
-0.014219 0.046636 0.012395
-0.035809 0.033639 0.011664
-0.018898 0.038523 0.013003
0.026204 0.034423 -0.021296
0.026581 -0.008878 -0.022249
-0.007155 -0.047186 0.013168
-0.060969 0.000241 -0.013190
-0.046718 0.030096 0.005278
-0.062873 0.004530 -0.015540
-0.024826 -0.031645 0.013536
0.059522 -0.013797 0.006694
-0.065679 0.011431 0.010770
-0.023132 0.025655 0.013264
-0.016360 0.029976 0.013741
-0.041228 -0.037638 0.009365
0.011455 -0.039999 0.009224
0.025571 -0.006968 0.015580
0.065131 -0.010814 0.009413
-0.019541 -0.005881 0.014341
0.029943 0.063335 0.004587
0.012713 0.059909 0.003351
-0.024147 -0.058497 -0.002138
-0.002744 0.018089 0.014977
0.056344 0.013357 0.007709
-0.064836 0.006194 -0.011502
0.051806 0.016846 -0.018294
0.024491 0.051631 0.015185
0.056578 0.013276 0.005662
0.044877 0.035938 -0.007589
0.032310 -0.027128 0.014799
0.040161 0.043343 -0.012442
0.012573 -0.038320 0.013732
-0.047988 0.022595 -0.021300
-0.059526 0.021660 -0.021572
0.013249 0.018906 0.015640
-0.047929 0.028063 -0.020801
-0.042546 0.001584 0.012683
0.015966 0.024989 0.015714
-0.029652 0.039018 0.011057
0.036712 0.033352 0.015601
-0.000279 0.049249 0.013841
-0.004578 0.014886 0.014963
0.055102 -0.014528 0.015705
0.030304 0.051806 0.015154
0.044143 -0.022322 0.009149
0.004327 -0.043645 -0.016549
0.056480 0.012427 -0.012073
-0.014057 -0.053512 -0.006045
0.039439 0.015606 0.015993
-0.023835 -0.058318 -0.006504
-0.045829 0.029731 0.011219
0.041591 -0.023759 0.013649
0.012846 -0.006288 0.015387
0.041295 0.023340 0.015789
-0.013199 -0.031738 0.013895
0.028000 0.065046 0.012131
-0.034166 0.003697 0.013275
-0.039790 -0.017482 0.012803
0.066731 -0.005741 -0.008151
-0.012489 0.021676 0.014333
-0.007550 -0.042730 0.013401
-0.052550 0.000161 0.011995
0.028494 0.006001 0.015923
0.031580 0.059103 0.009144
-0.058526 -0.003388 -0.016860
0.034586 -0.026411 -0.017635
-0.052008 0.026172 -0.019878
0.016177 -0.009909 -0.022425
0.002363 0.029187 0.015034
0.030481 -0.028490 -0.018935
-0.052668 0.009859 0.011849
0.008776 0.045024 0.014847
0.053483 0.014605 0.015397
-0.047957 -0.025780 0.005569
0.000690 0.053225 -0.019110
-0.015858 0.001347 0.014479
-0.063518 0.003313 -0.000813
-0.048831 -0.023142 0.009045
0.016477 0.060998 -0.003119
-0.053473 0.000107 0.011914
-0.040980 -0.038054 0.009388
-0.021701 -0.015954 0.014086
0.001026 0.047878 0.014056
0.019729 0.045415 -0.021123
0.066610 -0.004854 -0.005403
0.033109 0.051379 0.015086
-0.049087 -0.010976 -0.021137
-0.034862 0.022688 0.012362
0.017510 0.033779 0.015571
0.025728 0.059656 0.014928
-0.027984 -0.036629 0.013161
-0.044851 -0.030015 0.010739
0.041278 0.041326 -0.011539
0.028225 -0.030639 0.013719
-0.003327 0.000250 0.015077
0.005778 0.056277 0.013738
-0.062652 0.011688 -0.022086
0.065714 -0.003221 -0.003543
0.010507 0.058737 0.013969
0.036752 0.028577 0.015772
0.030313 0.010950 -0.022046
-0.061420 0.002318 0.010582
-0.015746 -0.039148 0.013497
0.031763 0.059152 -0.014125
-0.050382 0.027916 0.001278
0.050633 0.017967 -0.018487
-0.012044 -0.009499 -0.022100
0.023152 -0.009406 -0.022240
0.030901 -0.021359 0.014990
0.052120 0.012439 0.015699
0.038038 0.048774 -0.003963
-0.010205 -0.033922 -0.021882
-0.059777 0.023279 0.009710
0.007001 0.010826 -0.022240
0.041376 0.036879 0.015144
0.037101 0.049469 -0.011319
0.060777 -0.013471 0.010767
0.059034 0.001960 0.015835
0.058043 -0.013998 -0.001255
0.018802 -0.035848 -0.010639
-0.031188 -0.055938 0.011276
-0.001252 -0.046568 -0.016846
-0.017612 0.038793 0.013109
0.014271 0.032203 0.015532
-0.035377 -0.049537 -0.012712
-0.046928 -0.027260 -0.013291
-0.033922 -0.053813 -0.001336
-0.006879 0.041393 0.013865
-0.064581 0.010757 0.011019
-0.000746 0.004511 0.015199
0.013250 0.057864 -0.019971
-0.065614 0.007458 0.000509
-0.058259 0.021673 -0.021817
-0.031527 -0.056117 -0.012747
0.001156 -0.045572 0.007152
-0.037001 -0.046599 0.005777
-0.006878 0.050599 0.012508
-0.044532 -0.033711 -0.010046
-0.059028 0.018423 0.011153
0.041201 0.039235 0.014095
0.004072 -0.043921 0.009408
0.000812 0.012906 0.015205
-0.058905 -0.004956 0.004308
0.053660 -0.017333 0.013109
0.062589 0.002718 -0.006942
0.019737 -0.033026 -0.020059
0.026172 -0.014427 -0.022095
0.014942 -0.023250 0.014679
0.048171 0.029562 -0.008277
-0.033213 -0.055620 -0.011741
0.048052 -0.014391 -0.021156
-0.024318 0.030944 0.012932
-0.030540 0.038536 0.010066
-0.015868 0.034971 0.013512
-0.035290 -0.017043 0.013232
0.021768 0.001113 0.015734
0.026031 -0.031584 0.014041
0.041806 0.034504 -0.018790
0.057119 0.009481 -0.016995
-0.064602 0.012954 -0.022089
-0.006469 0.051036 0.011631
0.015173 0.004228 0.015669
0.005337 0.019863 0.015323
0.024608 0.057512 0.014891
-0.012267 -0.018580 0.014383
0.050031 0.007149 -0.020035
0.027715 0.065437 -0.004311
0.047213 -0.020769 0.012167
0.054285 -0.007664 0.015886
0.056313 -0.011930 0.015856
-0.006699 0.048890 -0.019915
-0.022406 0.041445 -0.019634
0.062250 -0.012793 0.013999
-0.029664 0.038728 0.011486
-0.041691 -0.038507 -0.012237
0.028335 0.052183 0.015161
-0.045193 0.007093 0.012445
0.023397 -0.030730 0.014351
0.030686 -0.026277 -0.020034
-0.048201 -0.020621 -0.020654
0.053448 0.004540 0.015883
0.056461 -0.006835 0.015922
0.001837 0.016949 0.015207
-0.011220 0.022942 0.014412
-0.042680 -0.034867 0.009479
0.005783 -0.009458 0.015147
-0.019008 -0.028774 -0.021567
-0.020384 -0.055815 -0.019856
0.047932 -0.009141 0.015759
-0.043677 -0.023893 0.012103
0.024088 0.064345 -0.018853
-0.008802 0.040996 -0.020655
0.067226 -0.007137 0.007222
-0.043314 0.001361 -0.020898
0.008282 -0.041073 0.013157
-0.046025 -0.030021 0.003032
-0.029599 -0.033068 0.013189
-0.046715 -0.026507 0.010605
-0.059741 0.023245 0.006417
-0.023465 0.040876 0.012455
-0.047212 0.029929 0.009801
0.001626 0.016829 0.015213
0.032756 0.031653 0.015774
0.026219 -0.029226 -0.019946
-0.034248 -0.032316 0.012829
-0.067483 0.017728 -0.015183
0.034127 0.056078 -0.005965
-0.041514 -0.037114 0.009397
0.050089 -0.004017 0.015924
-0.016974 -0.046740 0.013130
-0.057996 0.003651 0.011555
-0.060029 0.007996 -0.021937
-0.056956 -0.000714 -0.021753
0.055031 0.016380 0.004165
-0.017182 -0.036844 0.013568
-0.006109 -0.046286 -0.020883
-0.029692 0.038031 -0.014771
0.055639 0.015813 -0.007680
0.014204 0.056690 -0.020173
-0.034914 0.034913 -0.020326
0.023060 -0.033471 -0.016499
0.064909 -0.003460 -0.012233
-0.033903 -0.041337 0.012452
0.036694 0.010525 0.016033
-0.020193 -0.033331 0.013671
-0.008311 0.048752 -0.015695
0.027415 0.010726 0.015958
0.044340 0.021009 -0.019574
-0.046271 -0.030290 -0.011890
0.001494 0.049609 0.013990
0.039041 0.046349 -0.009183
-0.042467 -0.002900 0.012774
0.047254 0.029832 -0.010343
-0.047985 0.008577 0.012231
-0.036332 -0.049760 -0.004469
-0.013252 -0.052996 -0.009654
0.025189 -0.014271 -0.022113
-0.003409 0.012719 0.015040
-0.031230 -0.046100 -0.020513
0.045342 0.020220 -0.019530
0.033390 0.046285 -0.019403
-0.024468 -0.040550 -0.021187
0.006760 0.047753 0.014479
0.059049 -0.001043 0.015940
-0.054649 -0.003790 -0.021634
-0.012098 -0.026525 0.014138
0.008060 0.041004 0.015027
-0.041765 -0.039284 -0.005842
-0.042792 -0.037196 -0.004776
-0.015095 -0.000432 0.014539
0.015588 -0.037665 -0.006955
-0.017628 -0.054921 -0.016087
-0.028288 0.038556 -0.019295
0.033723 -0.018931 0.015147
-0.048067 0.023607 0.011494
0.046665 0.005184 0.015999
0.005563 0.021128 0.015350
-0.003486 0.049649 0.013537
0.023637 0.019822 0.015901
0.005607 -0.022836 0.014596
0.015401 0.050797 0.014922
0.020009 -0.035428 0.006380
-0.049608 -0.019432 0.011206
0.039261 0.031727 0.015567
-0.031937 0.037923 0.009717
-0.000408 -0.014499 0.014877
0.048802 -0.016248 0.015538
0.030140 0.060864 0.012044
0.007894 -0.037286 0.013775
-0.005032 0.007703 0.014952
0.027423 0.053927 0.015136
0.045086 0.031250 0.014604
0.013507 0.002236 0.015572
-0.010315 0.029288 0.014249
-0.008367 0.005667 0.014825
0.047476 0.019603 -0.019129
0.014768 -0.038131 -0.012184
0.014983 0.003284 -0.022451
0.008846 0.053202 0.014319
0.008608 0.058789 0.011296
-0.010308 0.047050 -0.019974
-0.015379 -0.054234 -0.004989
-0.051586 -0.003941 0.012014
-0.018118 -0.055633 -0.004831
0.051018 -0.018092 -0.000435
0.044189 0.029426 0.015400
-0.000783 -0.045301 -0.020182
0.003070 0.016341 0.015272
-0.006776 0.009719 0.014892
-0.014915 0.043585 -0.020371
-0.008507 0.043705 -0.020399
-0.050333 0.013125 0.011902
0.016944 0.015498 0.015777
0.041608 -0.022307 -0.017821
0.008758 -0.041369 -0.011641
0.037555 0.048728 -0.010714
-0.021342 -0.056762 -0.015671
-0.029831 -0.058774 0.010218
0.006816 -0.042415 -0.010731
0.043101 -0.018141 0.015333
0.062162 -0.010587 -0.014485
0.014343 -0.038397 -0.012352
0.017517 0.029491 0.015712
-0.014640 -0.052897 -0.019384
0.034006 0.055860 0.001169
-0.042627 0.014554 0.012225
0.049972 -0.005258 0.015880
0.033004 -0.027897 -0.013686
-0.034685 0.036018 0.011284
-0.053388 -0.015597 -0.012594
-0.001358 0.053022 0.003842
-0.015205 -0.024370 0.014095
-0.025449 -0.050712 0.012738
-0.024132 -0.058553 0.011537
0.005175 -0.043354 -0.008265
0.016024 0.015234 0.015738
-0.012410 -0.040073 0.013520
-0.016284 -0.044251 -0.021456
0.067389 -0.007101 -0.006588
-0.038204 -0.025314 -0.019844
0.021397 -0.034508 -0.010767
0.010250 0.007733 -0.022285
0.038024 -0.025294 -0.003019
-0.056264 0.019785 0.011274
0.007367 -0.025350 0.014464
0.025735 -0.029257 0.014508
-0.008524 -0.050314 -0.016255
-0.038481 0.033675 -0.017893
0.018963 0.063669 0.009187
0.026785 0.067783 0.012362
-0.010744 -0.009172 -0.022167
0.003116 -0.044575 0.004958
0.046905 0.029872 0.011698
-0.020011 -0.055640 0.012512
-0.038823 0.018742 0.012328
0.037889 0.048945 0.001016
0.012399 -0.010285 0.015250
-0.030658 -0.054999 0.012110
0.031654 0.060967 -0.008477
0.020250 -0.013638 0.015211
0.016750 -0.014834 0.015107
-0.026464 -0.000665 -0.020705
-0.021849 0.042135 0.012434
0.066221 -0.008777 0.001730
-0.040722 -0.040148 -0.012184
-0.003779 0.051751 0.003300
-0.020944 0.038180 0.012818
-0.046852 -0.015225 -0.020885
0.008287 -0.000088 0.015416
-0.044733 0.031217 0.010261
-0.013720 0.002276 0.014637
-0.043690 0.030690 -0.019664
0.045565 -0.013107 0.015579
-0.014375 0.044476 0.012953
0.050038 -0.003568 -0.021200
-0.001436 -0.031296 0.014137
-0.035787 -0.034200 0.012598
-0.014700 -0.053888 0.010955
-0.037540 -0.034897 0.012360
0.052623 -0.000006 -0.020466
-0.060309 0.002671 -0.021328
0.051440 0.021725 -0.013497
-0.018596 -0.016190 -0.021554
-0.004140 -0.048286 0.006663
-0.012083 -0.051594 -0.019751
-0.000028 0.054361 0.010343
-0.023864 -0.058032 -0.015264
0.002498 -0.042698 -0.020492
-0.027992 -0.058688 -0.004971
0.040044 0.038966 -0.018668
0.006142 -0.038221 0.013723
-0.024865 -0.058838 -0.000868
-0.009134 -0.051035 0.004682
-0.061513 0.007147 -0.021919
0.029557 0.063976 0.005317
0.013361 0.034664 0.015455
0.032028 0.036859 0.015660
-0.018438 -0.054627 -0.020515
-0.016718 -0.046882 0.013133
-0.018510 0.026857 0.013673
-0.052567 0.018762 0.011505
0.018114 0.019294 0.015769
0.001706 0.047664 0.014141
-0.067752 0.016791 0.010854
0.050154 -0.018715 0.003169
-0.058950 0.022774 0.010862
0.001892 0.019533 0.015186
-0.015938 -0.054676 0.001767
-0.024586 -0.022203 0.013847
-0.025905 0.039872 -0.017315
-0.026439 0.000181 0.013853
-0.052798 0.026939 0.008516
0.062545 -0.002362 -0.017698
0.021012 -0.020031 -0.021898
-0.000689 0.010785 0.015169
0.039523 0.042089 -0.018276
-0.024169 0.003816 0.013962
0.066680 -0.006056 -0.012058
0.044635 -0.021415 -0.007046
0.045803 0.031543 0.012697
-0.034167 0.016726 0.012760
-0.048700 0.002152 0.012285
-0.064033 0.004940 0.004132
-0.016224 -0.041693 0.013385
-0.032938 -0.056608 -0.011546
0.037688 0.047662 -0.016091
0.056685 -0.015410 0.007728
0.007087 -0.042369 0.011205
0.049645 -0.018720 -0.003055
-0.038916 -0.042463 -0.014268
0.020279 0.001679 -0.022361
0.034644 0.053898 -0.013473
-0.026829 0.021377 0.013159
-0.019423 -0.054884 -0.020892
-0.006113 -0.049352 0.004310
0.017158 0.041434 0.015421
-0.003938 0.013989 0.015014
-0.054440 0.014636 0.011638
-0.056945 0.018494 0.011260
0.027197 0.065473 0.014408
0.018844 0.030199 0.015702
0.008874 0.058952 0.011959
-0.040741 -0.025394 0.012443
0.060913 -0.012680 0.002409
-0.021923 0.012519 -0.021391
-0.037664 0.021712 0.012172
0.008644 0.006744 -0.022285
-0.021168 0.034338 0.013060
-0.056726 -0.006594 -0.017249
0.031943 0.056855 0.013374
0.004273 0.032334 0.015116
0.030479 -0.026122 0.014764
-0.069268 0.015025 -0.005295
-0.037833 -0.046844 -0.006059
0.038014 0.041706 0.015133
0.001239 -0.045443 -0.008365
-0.063435 0.003340 -0.010601
0.018380 -0.036347 0.011457
-0.015377 0.029798 0.013805
-0.001956 -0.047221 0.000526
0.032369 0.025304 0.015867
-0.024865 -0.011972 0.014000
0.044398 0.035696 0.007924
-0.022793 -0.057558 -0.014085
0.007899 -0.001193 0.015387
-0.061197 0.022208 0.010295
0.032520 -0.020100 0.015087
-0.055627 0.020182 -0.021734
0.020471 -0.000831 0.015664
0.002304 -0.040761 0.013547
-0.008957 0.048374 -0.018575
0.023974 -0.029969 -0.020106
-0.023606 -0.058257 -0.002453
-0.040688 -0.033092 -0.020546
-0.012935 0.047694 0.011619
-0.040300 -0.025844 -0.020149
0.012890 0.044811 0.015095
0.015828 0.061150 0.014260
0.055670 0.001178 0.015909
0.024348 0.003920 0.015843
0.028426 -0.030779 0.005980
-0.021608 0.042016 -0.017961
0.037668 0.047966 0.009261
0.035540 0.051099 -0.017617
-0.048962 -0.025103 -0.002679
0.030186 0.057691 0.014915
0.017664 -0.033862 0.014068
0.000668 0.022564 0.015082
0.023327 0.044350 0.015502
0.033406 0.026142 0.015856
0.025792 0.035167 0.015752
0.032608 0.057991 0.004504
-0.018553 -0.026827 0.013943
0.040791 -0.023724 -0.002910
0.056988 -0.013806 0.015793
0.003501 -0.044186 0.012483
-0.057617 -0.007891 -0.012003
-0.009836 0.043154 -0.020415
-0.052678 0.010374 0.011830
0.009477 -0.041237 0.011807
0.041570 0.032662 0.015413
0.029896 0.062686 -0.012414
0.009216 -0.022815 0.014629
0.027297 -0.021174 -0.021598
0.051095 -0.018220 0.003894
-0.012567 0.022784 0.014320
-0.018090 0.045066 0.011382
0.057999 0.002968 -0.018741
-0.022709 0.041177 0.012476
-0.024214 -0.058457 -0.010158
-0.051669 -0.010069 -0.021369
0.037366 -0.024273 -0.019366
0.034691 0.055271 -0.008019
-0.028111 -0.058452 -0.007764
-0.039165 -0.041870 0.007739
-0.002876 -0.021528 0.014566
0.035344 0.037516 0.015486
0.025902 -0.029366 0.014510
0.053070 -0.015599 -0.018326
-0.019264 0.021409 0.013829
-0.028456 0.030188 0.012505
0.017934 -0.036552 -0.002559
-0.028333 -0.048456 0.012676
0.037501 0.015104 -0.021305
-0.067312 0.017960 -0.009970
-0.045553 -0.031031 0.002707
0.041400 0.041409 0.008424
0.012426 -0.005581 0.015390
-0.020445 -0.014974 -0.021392
0.028676 0.066347 -0.002429
-0.042204 -0.023962 -0.020380
0.012155 0.058372 -0.019434
-0.011522 -0.023422 0.014272
0.040571 0.016914 0.015959
-0.043704 -0.035619 -0.011446
0.050885 0.012502 0.015786
0.005225 0.057035 0.011481
-0.047921 -0.026988 -0.000443
0.051449 0.019713 0.014689
0.026155 0.067660 0.014091
0.057234 0.012561 -0.006180
0.052296 -0.007800 -0.021251
0.050833 0.011174 0.015836
-0.044670 -0.020495 -0.020615
0.020037 -0.004294 0.015557
-0.007398 0.042960 -0.020517
-0.020328 -0.054700 0.012810
0.005898 0.052156 0.014216
0.048627 0.004617 0.015948
0.058307 0.009770 0.007302
-0.040148 -0.033002 0.012053
0.011359 -0.011609 0.015176
-0.013182 0.031805 0.013896
0.004095 -0.044049 0.001622
-0.009349 0.038987 -0.020800
-0.051048 -0.020975 -0.009614
-0.055587 -0.008539 -0.017766
0.050410 0.022880 -0.016489
-0.063429 0.020223 -0.017869
-0.002056 -0.046582 -0.017967
-0.060083 -0.001669 0.008602
0.025108 0.064138 -0.019620
-0.014974 0.034436 0.013613
-0.038366 -0.042335 -0.016908
0.064660 -0.004539 0.014821
0.041116 -0.022372 -0.018819
-0.025926 -0.054473 0.012672
0.060293 0.006049 0.006864
0.039059 -0.024958 0.006312
0.057988 -0.005117 0.015965
0.025851 0.064270 -0.019586
0.016846 -0.000689 -0.022369
-0.039417 0.028579 -0.020888
0.022133 -0.025968 -0.021145
0.017906 0.001680 -0.022327
0.031739 0.058825 0.009026
-0.017892 0.000811 0.014395
0.015495 -0.037913 0.011579
0.049658 -0.018598 -0.005809
-0.059264 -0.004386 -0.012443
0.003973 0.050253 -0.020152
0.052319 -0.017652 0.006526
0.023009 0.000404 0.015746
0.014488 0.059993 -0.017124
-0.038044 -0.043950 0.007981
-0.037060 -0.048649 -0.011163
0.025689 0.065118 -0.003078
0.028531 0.058373 0.014952
-0.039482 0.028212 0.011622
0.004743 0.047800 0.014297
0.063992 -0.008762 0.016206
0.043323 -0.022198 -0.006210
0.051659 -0.017022 0.015547
0.047460 0.028914 0.011359
-0.012356 0.032616 0.013922
0.044289 -0.015248 -0.021302
0.012256 -0.035102 0.013949
-0.051689 0.027236 0.010606
0.031902 0.060275 -0.003594
0.038548 0.044968 0.012768
0.021533 -0.016591 -0.022135
0.036747 -0.022700 0.015033
-0.002187 -0.047296 0.005124
0.052539 0.019761 -0.012171
-0.066813 0.011707 -0.013581
0.010474 -0.026349 0.014451
0.030527 -0.021448 0.014983
-0.027289 0.035718 -0.020818
-0.034998 -0.022445 -0.019649
-0.001152 0.023745 -0.021807
0.044620 -0.021725 0.001096
-0.058763 0.009422 0.011525
-0.047809 0.002844 0.012349
0.025009 0.066131 0.014588
0.029092 0.063307 0.010685
-0.060994 0.021559 -0.018254
-0.037185 0.032388 0.011602
-0.020889 -0.055852 -0.020640
-0.012387 0.047691 0.012376
-0.010702 0.045206 -0.020304
0.033114 0.056074 0.009637
-0.006872 -0.044472 -0.021030
-0.014639 -0.053472 -0.015294
-0.051505 0.022329 -0.021508
0.039138 -0.024289 -0.015508
-0.035512 -0.031726 -0.019756
-0.029422 -0.001374 0.013661
-0.040826 0.032397 -0.018945
-0.062162 0.009240 0.011219
0.054136 0.004155 0.015887
0.009145 -0.025508 -0.021799
0.032359 -0.012597 0.015422
-0.012892 -0.053009 -0.000865
0.023438 0.000924 -0.022412
-0.034461 0.000474 0.013260
0.061491 0.004198 0.004221
-0.041193 0.014700 0.012301
0.048561 0.023527 0.015276
0.055248 0.013581 0.013758
-0.018194 -0.055759 0.004175
0.008629 0.007831 -0.022276
0.025355 -0.025806 0.014683
-0.033703 -0.029206 0.013016
-0.006838 0.007254 0.014918
0.058682 -0.011068 0.015934
0.002360 0.039748 0.014696
0.012038 -0.039270 -0.017359
-0.045270 -0.024532 -0.020775
0.013911 -0.035512 0.013926
0.038410 0.045502 0.012183
-0.009017 -0.017291 0.014559
-0.029164 0.031610 0.012351
0.038263 0.047193 -0.011957
-0.011696 -0.052264 -0.007005
0.029101 0.064005 -0.014009
0.050722 0.023830 -0.008860
0.057231 -0.008131 0.015959
-0.026611 0.040387 0.004229
0.027702 0.062720 0.014787
0.038978 -0.024667 -0.002642
0.051335 -0.018035 0.003481
0.001010 -0.045686 0.002203
-0.069541 0.015114 0.004085
-0.033272 -0.056064 -0.008190
0.027172 -0.023537 -0.021259
0.034467 -0.023658 0.014936
-0.016365 -0.054782 -0.003694
0.028884 0.064934 0.006380
-0.032014 -0.056408 0.004024
-0.013530 0.021265 0.014269
0.035017 -0.026942 -0.003388
-0.048169 0.025093 -0.021363
0.031275 0.035784 0.015696
0.023073 0.058052 0.014884
0.066358 -0.008309 -0.002175
-0.034490 -0.008700 -0.020038
0.051608 0.021193 -0.014277
-0.051181 -0.013077 -0.021207
-0.004850 0.029573 0.014635
0.046895 -0.011603 0.015671
0.031677 0.059292 -0.014009
0.019533 -0.035551 -0.008400
0.003175 0.020514 -0.021992
0.011484 0.035985 0.015303
-0.032587 -0.049655 0.012265
-0.047706 -0.027420 -0.004817
0.020191 0.002077 -0.022380
0.010425 -0.040533 -0.001096
0.061476 -0.013091 0.014474
0.014092 0.061623 0.012981
0.040122 -0.024134 -0.001704
0.045440 -0.015249 0.015498
-0.066428 0.018704 -0.012051
-0.025173 0.018162 0.013490
0.005494 0.033920 0.015064
0.048857 0.026861 -0.010797
0.059067 -0.006473 0.015988
0.017157 0.030295 0.015662
-0.064554 0.011224 -0.021695
-0.019020 -0.012763 0.014258
0.036145 0.049772 -0.017621
-0.027581 -0.059386 -0.016605
-0.060819 0.001829 -0.018766
-0.016959 -0.054603 -0.015592
0.042898 -0.016321 0.015395
0.041602 0.042090 -0.003660
-0.002230 0.051767 -0.018348
-0.058294 -0.003994 -0.016427
0.029082 0.063977 -0.014228
0.043865 0.032911 0.014950
-0.021300 -0.053805 -0.021395
-0.048690 0.019947 0.011670
-0.023704 0.013020 0.013741
0.000164 0.047969 -0.020249
-0.062158 0.002424 0.008726
0.031633 0.058751 0.009919
0.053282 0.020307 -0.007968
0.010273 0.050906 0.014564
-0.060045 -0.003591 -0.002989
0.000164 -0.045807 -0.017162
0.053185 -0.017527 0.011858
0.036516 -0.021788 -0.020463
0.052638 0.001291 0.015924
-0.043592 -0.033012 -0.015567
0.032440 0.013259 -0.021876
-0.021921 0.039216 0.012658
-0.008811 0.013460 0.014726
0.025535 0.059685 0.014932
0.013661 0.029983 0.015568
-0.051796 -0.016908 -0.015613
0.055182 -0.000558 0.015909
0.049218 0.024077 -0.017600
-0.036125 -0.012316 0.013215
0.063913 -0.001002 -0.008563
-0.021390 -0.055110 -0.021402
0.065165 -0.009542 -0.004907
-0.054380 -0.001750 -0.021631
-0.052033 0.018669 -0.021595
0.045135 0.019467 -0.019703
-0.025522 0.041207 0.009636
-0.067242 0.012447 -0.013483
-0.026623 -0.046395 0.012907
-0.014862 -0.046386 0.013158
-0.056559 -0.006422 0.010935
-0.013089 -0.032843 0.013842
-0.052188 0.002832 0.012059
0.048524 -0.018378 -0.016238
-0.021482 -0.056946 -0.013774
-0.023624 -0.031595 0.013578
0.064801 -0.009916 -0.003862
0.011562 -0.039961 -0.004279
-0.026711 -0.045801 0.012870
0.055843 0.015226 -0.005174
-0.066300 0.008912 -0.008582
-0.002415 -0.014967 0.014803
-0.013521 0.044247 0.013055
0.016234 0.026782 0.015687
-0.037016 -0.019228 0.013048
-0.016211 0.045072 0.012650
-0.000104 0.010186 0.015179
-0.018642 -0.000591 0.014344
0.009432 0.032176 0.015354
0.019954 0.062628 -0.017601
-0.003143 -0.047758 0.008404
0.026027 -0.028937 -0.020046
0.045506 0.032442 -0.015328
-0.026270 -0.047281 0.012882
0.050842 -0.017609 -0.011487
0.057698 0.011848 -0.007401
-0.039735 -0.017240 0.012828
0.050984 -0.012897 0.015661
0.027455 0.008884 -0.022191
0.039356 0.038370 0.015257
0.041645 -0.012148 0.015554
-0.016575 0.042118 0.012946
-0.058257 0.010737 -0.021947
-0.039220 -0.021450 -0.019970
-0.054897 -0.010151 -0.017154
-0.039057 0.033752 -0.000282
-0.020558 -0.056250 -0.018037
0.003489 0.045953 0.014342
0.055307 -0.015154 -0.007992
-0.020447 -0.056410 -0.014056
0.017658 -0.036508 -0.007809
-0.001931 -0.033434 0.013974
0.042910 -0.022304 -0.009164
0.028986 0.055385 -0.019463
0.004811 0.048704 0.014265
0.043344 0.037247 -0.012766
0.059963 0.007622 -0.005081
-0.062625 0.006952 -0.021332
0.064489 -0.000719 -0.006218
0.012096 -0.003631 0.015433
-0.031850 0.023196 0.012592
0.057847 -0.008165 -0.020741
0.059229 0.007802 0.008386
0.054998 0.014946 -0.013106
0.019093 -0.035921 0.004409
-0.016364 0.039895 0.013112
0.063451 -0.008901 -0.018068
-0.053978 -0.013295 -0.013211
0.021765 0.057545 0.014897
-0.058660 0.012274 -0.021954
-0.038573 -0.025912 0.012685
0.016163 -0.037578 0.012104
-0.006943 0.048558 0.013256
-0.062482 0.008838 -0.021924
0.016979 -0.037050 0.008856
-0.039384 -0.043424 -0.011952
-0.018741 -0.055913 -0.005827
0.021461 -0.007434 0.015506
0.060415 -0.010135 0.015977
0.033095 -0.028152 0.002926
-0.032077 -0.056297 0.004229
0.034774 0.015425 -0.021471
0.051849 0.013563 -0.018811
-0.057092 0.011002 0.011642
0.025667 0.064343 -0.019595
0.051294 0.019006 0.015165
0.016459 -0.009461 -0.022438
0.064022 -0.010015 -0.008459
-0.018223 -0.040683 0.013388
0.030768 -0.011354 0.015447
-0.009555 0.026165 0.014425
-0.000686 0.054061 0.011972
-0.005576 -0.048988 0.008290
0.022871 -0.016896 -0.022018
0.025927 -0.031971 -0.010582
-0.058154 0.023581 0.010585
-0.051229 -0.018703 0.009308
-0.000917 -0.046692 -0.004095
-0.064362 0.014550 0.010981
-0.002459 -0.033468 0.013957
-0.027750 -0.058904 -0.001987
-0.010291 -0.050641 -0.019820
0.040422 -0.015362 0.015421
0.034177 0.050557 0.014891
0.019125 -0.001555 -0.022360
0.033135 0.053627 0.014316
0.055832 0.013383 0.011146
-0.024017 0.040735 -0.019025
-0.052662 -0.017813 -0.005190
0.049272 -0.019202 0.002772
-0.029399 -0.034410 0.013161
0.030250 -0.017530 0.015181
0.057117 0.010629 -0.014514
-0.034098 -0.046696 0.012172
-0.029828 -0.046593 0.012620
-0.035166 -0.015269 0.013279
0.038386 -0.024862 -0.011245
-0.067498 0.017872 -0.007595
-0.030883 -0.058031 0.005546
-0.049992 -0.020106 -0.016598
0.013156 0.027144 0.015574
0.016357 -0.010007 -0.022437
-0.047541 0.027660 0.011297
0.042707 0.019042 -0.020180
0.061795 0.002693 -0.011558
0.025659 -0.015991 -0.022006
-0.036165 -0.047724 0.007475
0.046009 0.028757 0.015054
0.011109 -0.027975 0.014341
0.041042 0.042248 0.006890
0.042991 -0.015963 0.015380
0.003749 0.054814 -0.016228
0.025591 0.014135 -0.022110
0.032170 -0.028390 -0.014057
0.023634 -0.033332 0.013667
0.030070 -0.026373 -0.020086
-0.058945 0.018882 -0.021889
0.016479 -0.037340 0.003499
0.051261 0.012463 0.015758
-0.065628 0.019893 0.010083
-0.065982 0.009900 0.008794
0.026433 -0.023485 0.014820
-0.057754 -0.002237 -0.021166
-0.035327 -0.027068 -0.019580
0.045722 -0.003810 0.015893
-0.049765 -0.022217 -0.012659
-0.005650 -0.037872 0.013691
0.041210 -0.023896 0.009101
0.026012 0.059333 0.014947
0.035275 0.054145 -0.008230
0.018477 -0.010538 -0.022385
-0.037656 -0.008710 0.013079
-0.004990 -0.048508 -0.016041
0.051984 -0.016154 -0.018578
0.049339 0.001942 0.015932
-0.058145 -0.006705 0.003045
0.031252 -0.019087 0.015121
-0.029570 -0.016323 -0.020114
-0.038817 0.033049 0.011492
-0.009846 -0.032425 0.013911
0.062861 -0.009661 -0.017339
-0.050994 0.021593 0.011464
0.043055 -0.022203 -0.009311
0.056464 0.000545 0.015891
-0.048721 0.001600 0.012290
-0.011502 0.048520 0.011175
0.044225 0.035696 -0.011703
-0.016484 0.042386 -0.020433
-0.044553 -0.033645 -0.002296
0.015243 0.004438 -0.022382
0.005097 -0.043449 -0.004408
0.056290 -0.013016 -0.019341
-0.064961 0.011548 -0.021552
-0.003073 -0.047774 0.005739
-0.063160 0.002524 -0.004639
-0.043196 -0.036462 -0.010832
-0.039883 0.031651 -0.020907
0.033817 0.055699 0.005282
0.043741 0.033494 0.014823
-0.059062 0.004486 0.011432
0.006898 -0.004028 0.015314
0.060181 0.007146 -0.003376
-0.005931 -0.049343 -0.003115
0.052723 -0.012516 -0.020844
0.014115 0.059367 0.014296
0.016986 -0.032880 0.014111
-0.002759 -0.003905 -0.022313
-0.011908 0.012367 0.014573
0.032697 0.050754 0.015078
-0.022499 -0.048392 0.012935
-0.027859 -0.058920 -0.013262
0.050452 -0.018710 0.005035
-0.022454 -0.057196 0.012195
0.000307 0.052443 -0.019703
-0.064669 0.010305 -0.021212
0.022767 -0.023370 -0.021572
0.034793 0.054712 -0.003173
0.042237 0.038778 0.011473
-0.041661 -0.000921 0.012805
-0.031501 -0.032226 0.013069
0.029057 -0.028924 0.014585
-0.028658 -0.037300 0.013108
0.021771 0.049647 -0.020774
0.016309 0.053841 -0.020550
0.020930 -0.034814 -0.008776
-0.009372 0.046614 -0.020183
-0.027863 -0.059463 -0.018057
0.023576 0.061585 0.014827
-0.001143 -0.045780 0.013124
-0.029536 -0.058999 0.010905
0.067121 -0.008698 0.012263
0.048134 -0.019434 -0.005300
-0.044845 -0.031550 -0.012573
-0.000162 -0.046157 -0.009296
0.044343 -0.021413 -0.011298
0.003052 0.042719 0.014549
-0.046850 -0.029192 -0.010734
-0.029482 0.003367 -0.020536
0.043672 -0.022124 -0.002316
-0.045872 0.007995 0.012380
-0.062931 0.003289 -0.012801
-0.051294 0.017823 -0.021560
0.030724 0.050510 0.015204
0.053502 0.013318 0.015610
0.006424 0.037439 0.015043
-0.037362 -0.007574 0.013151
-0.032511 -0.027125 -0.019617
-0.049078 -0.018633 -0.020790
0.019165 0.062220 -0.003201
0.012904 0.035496 0.015401
0.046632 -0.014505 0.015545
0.057138 0.010943 -0.013121
0.041524 0.019827 0.015869
0.020569 -0.006236 -0.022375
-0.031610 -0.026611 0.013307
0.047965 0.018158 -0.019098
0.056906 -0.013573 -0.015374
-0.009108 -0.050755 -0.012252
-0.013906 0.036676 0.013558
-0.010286 0.040417 0.013659
-0.022507 0.011295 0.013887
0.011304 -0.039758 -0.017273
-0.005308 -0.044556 0.013305
0.054485 -0.009313 0.015840
-0.067389 0.010968 0.002116
-0.060829 0.021460 0.010885
-0.034544 -0.020851 0.013256
-0.018596 -0.029420 0.013847
-0.032481 -0.054916 -0.011807
0.031276 0.053942 0.015016
-0.028596 0.037787 -0.020475
-0.010101 -0.051383 -0.008798
0.009894 -0.040846 0.010058
0.063925 -0.001228 -0.009863
-0.029386 -0.001116 0.013667
0.059615 0.005979 -0.013866
0.017471 0.062601 0.014226
-0.011525 0.019657 0.014464
-0.028182 -0.056354 -0.020922
0.021465 -0.034610 0.006286
-0.033965 0.002888 0.013328
0.030497 0.006838 0.015948
-0.044394 -0.032130 0.007150
-0.032937 -0.034892 0.012847
0.049959 -0.017072 0.015507
-0.005634 0.016174 -0.021988
-0.010559 -0.047656 0.013131
-0.059744 0.004012 0.011354
0.005072 -0.000494 -0.022283
0.037938 0.048842 0.000279
-0.007788 -0.048653 0.013112
0.042361 0.017754 -0.020387
0.024054 -0.033039 -0.013992
0.039229 0.045203 -0.013325
-0.067702 0.018564 0.003002
0.022094 0.007910 -0.022374
0.010222 0.005745 -0.022300
-0.032781 -0.056041 -0.001390
-0.044463 -0.017528 -0.020598
-0.019628 0.000447 0.014271
-0.048951 -0.019729 -0.020409
0.010176 -0.040747 0.001558
0.014064 0.057909 -0.020059
-0.024794 0.039125 -0.020590
-0.007405 -0.006295 -0.022256
-0.001242 -0.045177 -0.020492
0.012740 -0.039356 0.008986
0.025865 -0.029560 0.014504
0.050162 0.023658 -0.015606
-0.023920 0.039644 0.012428
0.009361 0.036500 0.015194
0.035743 0.035049 0.015562
-0.037666 -0.047261 -0.007085
0.019180 0.007848 0.015781
-0.036454 -0.032387 -0.019927
0.042642 -0.022196 0.015071
0.016654 -0.033149 0.014100
-0.014422 -0.053708 0.005343
-0.039651 -0.033495 0.012107
0.030067 -0.029864 0.004479
0.009853 0.033380 0.015358
0.034264 0.055259 0.002577
0.016621 0.052630 0.014838
0.024809 0.032127 0.015796
-0.033375 -0.054359 0.001888
0.066027 -0.005402 0.009198
-0.014039 -0.053381 -0.010020
-0.043581 0.024280 0.011615
0.041383 0.041625 0.006972
0.064015 -0.008660 -0.017919
-0.069388 0.016401 0.001980
0.026839 0.066131 0.014279
-0.063381 0.015013 0.011026
0.048284 -0.013733 0.015571
0.044691 -0.021903 0.007154
-0.031952 -0.012699 0.013537
-0.031330 -0.056694 0.007347
-0.014906 -0.016301 0.014366
-0.053057 0.009578 0.011824
-0.060923 -0.001335 0.003563
0.009707 0.059318 0.010583
0.005803 -0.029185 0.014240
0.000378 0.044909 0.014169
-0.011141 -0.051695 -0.015891
-0.066700 0.015269 -0.021778
0.032612 0.057591 -0.015107
-0.064194 0.006469 -0.013691
0.023338 -0.011842 0.015327
-0.018720 -0.034418 0.013638
-0.037610 0.032653 -0.020885
0.039454 -0.024357 -0.006584
-0.035017 -0.035753 0.012609
0.010482 0.002312 -0.022378
0.007724 0.057711 0.013748
-0.018920 -0.044192 0.013264
-0.055292 -0.011059 0.007852
-0.004861 0.044595 0.013809
0.014508 -0.038328 -0.005458
-0.037034 -0.006607 -0.020224
-0.034922 -0.050487 0.005695
0.003370 0.025578 0.015226
0.001012 0.050196 -0.020095
-0.009414 -0.040992 0.013496
-0.020384 0.000459 0.014241
0.013513 0.060401 0.004168
-0.021887 0.007606 0.014003
-0.030826 0.032689 0.012152
0.038141 0.048608 -0.002821
-0.007545 -0.016891 0.014641
0.014871 -0.004616 0.015461
-0.025636 -0.031310 0.013481
-0.005593 0.047512 0.013487
-0.043336 -0.024583 0.012132
0.056057 0.013362 -0.009623
0.010995 -0.019071 0.014867
-0.025542 0.028522 0.012895
-0.042771 0.030585 -0.020757
0.029777 0.064277 -0.005093
-0.008420 -0.004964 0.014839
-0.020582 0.042724 0.012497
0.005539 0.047370 0.014437
0.012851 -0.010518 0.015252
0.025802 -0.013381 0.015302
0.047989 0.025716 0.014803
-0.026546 0.039095 0.012194
0.049147 -0.011210 -0.021460
0.024258 -0.019993 -0.021798
-0.008693 0.036817 0.014009
0.034045 0.055864 0.000392
0.017688 -0.001012 -0.022387
0.034599 -0.017644 -0.021541
0.055469 -0.002375 0.015927
0.043977 0.015975 -0.020193
-0.033598 0.035290 -0.020587
0.007971 -0.041903 -0.002239
0.004459 0.052978 0.013994
0.019173 0.061446 -0.019517
0.038289 -0.025417 0.005713
-0.037441 -0.047107 -0.000598
0.042527 0.023155 0.015748
0.059847 -0.012114 -0.013284
0.018794 0.054165 0.014856
0.022192 -0.022597 -0.021669
-0.044742 0.030325 0.011279
0.067266 -0.006996 -0.008494
0.054268 -0.004437 0.015936
-0.028628 0.038552 0.012008
-0.016464 0.045870 0.009442
0.058261 -0.014896 0.013405
0.038729 0.046396 -0.010713
0.029130 0.065634 -0.007580
0.011413 0.000561 0.015487
-0.043273 0.028191 -0.021070
-0.024380 0.040964 0.012182
-0.064215 0.020910 0.008626
0.020119 -0.019952 -0.021901
0.034896 0.045945 0.015213
0.045910 0.032621 -0.009389
0.008958 -0.041258 -0.012167
0.065485 -0.010892 0.014362
-0.025676 0.010049 0.013698
-0.011395 -0.035590 0.013749
-0.031344 -0.057461 0.004559
-0.013562 0.039765 0.013403
-0.033974 -0.054426 -0.005498
-0.006447 0.012467 0.014877
-0.034983 0.015568 0.012737
-0.014053 0.027608 -0.021417
0.045201 0.013221 -0.020264
0.059704 -0.012871 -0.003536
-0.017042 -0.055136 -0.003684
-0.014174 0.005721 0.014552
0.046331 -0.016133 -0.020857
0.029009 0.063097 0.012070
0.013174 0.057448 -0.020037
0.018034 0.003214 -0.022393
0.044954 0.031857 -0.017946
0.050837 0.003828 -0.020298
0.009861 -0.021691 0.014708
0.058702 -0.006272 0.015968
-0.055241 -0.010551 0.010160
0.013556 -0.002262 -0.022423
0.056921 0.011159 0.011680
0.048394 0.026896 -0.015322
-0.032660 -0.056337 -0.001933
-0.053962 -0.015304 -0.002670
-0.036417 -0.012887 -0.020046
-0.059824 0.022965 0.001256
-0.013121 0.010878 0.014533
0.021182 -0.034773 0.002654
0.066424 -0.007797 -0.009781
-0.052950 -0.009786 -0.021306
0.037048 0.018097 0.015981
0.041451 0.037303 0.015037
0.044336 0.000015 0.015961
0.025097 -0.029952 -0.020025
-0.014012 -0.019569 0.014278
0.027746 0.065685 -0.005585
0.066340 -0.004674 0.000249
-0.038015 0.032629 0.011543
-0.056741 -0.009955 -0.001898
0.001204 0.022902 -0.021864
-0.009572 -0.044732 0.013259
0.042785 0.032421 -0.018760
-0.054480 -0.004926 -0.021582
0.063791 -0.000865 -0.008645
0.061780 -0.007658 0.016087
-0.044756 -0.033106 -0.004312
-0.035422 -0.032459 0.012688
-0.030955 -0.058977 -0.010040
-0.037423 -0.047743 -0.008312
0.054794 0.017118 0.000388
0.057962 -0.013416 -0.011027
-0.028450 -0.059621 -0.016491
0.022525 0.061864 -0.020042
0.017926 -0.036337 -0.016093
0.020081 0.004794 -0.022417
0.045097 0.032945 -0.015717
-0.044947 0.022840 0.011643
-0.003999 0.044449 0.013887
0.017877 0.012652 0.015798
-0.046597 0.029229 -0.019522
-0.004197 -0.048096 -0.016289
0.028737 -0.026767 0.014694
-0.056026 -0.003283 0.011539
0.049137 0.020711 -0.018668
-0.020630 -0.041101 0.013325
0.003500 0.054699 -0.010594
0.012944 0.054899 -0.020243
0.026652 0.000303 0.015809
0.060345 -0.000560 0.015902
-0.013014 -0.008899 -0.022042
0.008037 0.032973 0.015298
0.066014 -0.008679 -0.006324
0.055071 0.000422 0.015855
0.049330 0.027502 -0.007649
0.027432 0.000570 -0.022258
0.043537 0.012954 0.015976
-0.042228 -0.038273 -0.008466
0.025612 -0.027580 -0.020484
0.032329 0.059095 0.001518
-0.026433 0.040599 0.011284
-0.000138 0.028487 0.014959
0.018237 -0.021135 0.014843
0.048007 0.029217 0.006341
-0.038504 -0.023000 -0.019900
-0.000936 -0.034168 0.013943
0.011239 0.046163 0.014927
-0.040995 -0.002692 -0.020614
-0.035284 -0.040555 -0.019920
0.013712 0.004269 0.015605
-0.025472 -0.058449 -0.019806
-0.006279 0.039542 -0.020840
-0.065897 0.007874 -0.004242
0.010725 -0.017241 0.014936
-0.025910 0.030719 0.012772
0.008910 -0.041407 -0.003779
-0.002098 -0.043524 -0.020782
-0.012222 0.036309 0.013729
0.034336 0.050549 -0.018778
-0.014075 -0.053555 0.004931
-0.014017 -0.053531 -0.004509
-0.034071 0.036048 -0.004620
-0.014713 -0.048995 0.013046
-0.001992 -0.031655 0.014082
-0.015838 -0.033636 0.013752
0.016070 -0.019577 0.014896
0.016231 0.057999 0.014563
0.021508 -0.001995 -0.022364
0.011173 0.056833 0.014238
0.038268 0.032999 0.015531
0.012586 0.045014 0.015059
-0.057400 -0.007236 0.006802
-0.045208 -0.030108 -0.015139
0.019764 -0.014446 0.015166
-0.006012 0.050266 -0.000603
-0.051167 -0.020729 -0.007457
0.017619 0.014853 0.015786
0.052638 -0.006463 0.015874
0.012921 -0.002679 -0.022428
0.058080 -0.000424 0.015912
0.008582 0.019122 0.015483
-0.035545 -0.044567 -0.020237
0.016974 -0.001426 0.015594
0.037492 0.001295 0.015941
0.027054 0.066724 0.012402
-0.055384 0.024522 -0.018897
0.060294 -0.011302 -0.016811
0.007647 -0.017725 0.014865
0.013283 -0.030774 0.014209
0.046733 -0.006067 0.015809
-0.053225 -0.011426 -0.020625
-0.011818 -0.050343 0.013009
0.056666 -0.002218 0.015908
0.064457 -0.001283 -0.008135
0.048818 0.023383 -0.018229
-0.000016 0.041933 0.014387
0.028203 0.065936 -0.013662
0.014863 0.003529 -0.022451
0.062629 -0.010548 -0.011509
-0.001618 0.053586 0.011513
-0.047315 0.026283 -0.021297
0.017636 -0.036584 -0.010438
-0.000446 0.024461 -0.021795
-0.052501 -0.016273 -0.013135
-0.020223 -0.038736 0.013440
0.035679 0.013335 -0.021567
0.021156 0.065166 0.013958
-0.026946 0.025210 0.012922
0.024285 -0.027901 -0.020571
0.014410 0.034933 0.015462
0.065846 -0.009274 0.000924
0.042144 -0.023147 0.002526
-0.056000 -0.011521 -0.004790
0.026878 0.065201 -0.004199
0.059989 0.007572 -0.007570
0.066136 -0.006072 0.010574
0.046837 0.032090 -0.002902
-0.056173 -0.010262 0.004471
0.004730 0.056626 0.013094
0.000125 0.049685 -0.020132
-0.009346 0.046086 -0.020258
0.029162 0.057608 -0.019215
-0.035408 -0.048851 0.008261
0.005726 -0.043072 0.006904
