-0.006160 -0.015537 0.005565
-0.003084 -0.057427 0.002939
0.010431 -0.056759 -0.000390
0.000221 -0.057217 0.008711
0.007943 -0.055201 0.005928
0.009859 -0.053162 0.002629
-0.003288 -0.002121 0.007582
0.006594 -0.015574 0.005768
0.009991 -0.045509 -0.000447
-0.000215 -0.033486 -0.009436
-0.000571 0.037447 0.007258
0.006261 -0.035797 0.006503
0.001080 0.013125 -0.008894
0.003671 0.032845 0.005867
0.006515 0.011435 -0.005753
0.006679 0.034304 0.000580
-0.006246 -0.047834 0.005291
-0.000734 0.048232 -0.009250
0.009145 -0.045460 -0.004367
-0.009491 0.048699 0.002404
-0.004620 0.048677 0.007672
0.008964 -0.049108 -0.005023
-0.003431 0.034019 0.006285
-0.002214 0.055320 0.008775
0.006529 -0.016622 0.005805
-0.002706 -0.013040 -0.008908
-0.007425 0.023560 -0.005556
0.009758 -0.052603 0.002870
-0.005819 -0.054937 0.005851
-0.000905 0.028626 0.007916
-0.005145 0.033481 0.005487
-0.004511 0.007376 -0.008158
0.004744 -0.036636 0.007801
0.000217 0.008274 -0.009111
0.008048 0.011348 -0.001625
0.002403 0.057560 0.002444
-0.003632 0.005993 0.007463
-0.004479 0.015086 -0.008143
-0.002255 0.008870 0.007851
0.000683 -0.019572 -0.009339
-0.006096 0.044455 -0.007140
0.005554 -0.011322 0.006500
-0.008205 -0.006749 -0.002630
-0.008489 0.029042 0.002931
-0.003579 0.031062 0.007193
0.002577 0.000018 0.007832
-0.005882 0.011816 -0.007142
0.002237 -0.056074 -0.006348
-0.001915 0.031715 -0.008450
-0.007064 -0.031575 0.004397
-0.004739 0.010458 -0.007885
0.002495 0.057740 -0.003044
0.001128 -0.051617 -0.009718
-0.008642 0.019216 -0.003078
-0.008250 -0.047784 -0.001415
-0.007096 -0.029648 0.004648
0.001655 0.008760 -0.008891
0.003330 -0.010388 0.007741
0.003125 -0.016756 0.007910
0.001582 0.055030 -0.009112
-0.001436 -0.056257 0.005736
-0.007382 -0.004173 -0.005311
-0.000827 0.055599 -0.005936
-0.000584 -0.008761 0.008204
-0.004488 0.027326 0.007046
-0.006934 -0.047682 0.004354
0.005528 0.052251 0.005807
0.005060 -0.034293 0.007736
0.008510 -0.052605 -0.006029
-0.006985 -0.048466 0.004239
-0.008166 -0.049834 -0.002073
-0.002187 0.028170 -0.008798
0.000208 0.034540 0.006861
-0.008295 0.040536 0.002876
0.002420 -0.029560 -0.009230
-0.008875 0.023851 0.001432
-0.009420 0.050835 0.003073
-0.006193 0.053252 0.007141
-0.008028 0.035280 0.001402
-0.007702 -0.057457 -0.003485
-0.004785 0.018316 0.007020
0.006330 -0.048967 0.006997
-0.000722 -0.021652 0.008305
-0.008423 0.048159 -0.005469
-0.003033 -0.021320 0.007751
-0.005985 -0.031429 -0.006797
0.003159 -0.018616 0.007924
0.000299 -0.020758 0.008354
-0.001692 0.047638 0.008171
0.005235 0.049299 -0.006675
-0.007920 -0.047314 0.002057
0.003332 -0.006232 0.007699
-0.002604 -0.002764 0.007803
0.007992 -0.013191 -0.004701
-0.006455 0.045102 0.006305
0.002276 -0.033235 -0.009312
-0.007605 -0.050728 0.003010
-0.004042 -0.029564 -0.008332
-0.007629 -0.057897 -0.002697
-0.002676 -0.047162 -0.008910
0.001131 0.017880 0.007879
0.001101 0.031786 -0.008317
-0.004294 -0.011708 -0.008242
0.006196 0.033837 -0.003087
-0.007722 0.033784 0.001998
-0.004654 0.046286 -0.008288
-0.002577 0.023680 -0.008775
-0.002095 -0.039556 -0.009161
0.002556 -0.005130 -0.008876
-0.001294 -0.054580 -0.009494
0.006877 -0.018842 -0.006568
-0.001464 0.054577 -0.009566
-0.005184 -0.019052 0.006414
-0.004617 -0.037744 -0.007906
-0.003359 0.017945 0.007523
-0.000127 -0.046816 -0.009540
-0.005276 -0.056832 -0.007399
-0.003579 -0.037048 -0.008605
-0.004369 -0.032638 -0.008125
0.004092 -0.041901 0.008057
-0.000955 -0.008475 0.008164
0.009780 -0.048298 -0.002932
0.001266 0.056519 0.004066
-0.000035 -0.051410 0.008741
-0.004547 -0.050004 0.006941
-0.005453 0.008182 0.006324
-0.000718 0.060742 0.004016
0.003157 0.050834 -0.008304
0.001305 0.003140 -0.009008
-0.004295 -0.058051 0.004192
-0.002065 -0.004429 -0.009253
0.001170 0.056836 -0.009246
-0.003204 0.028737 -0.008560
0.000255 0.018209 0.007980
-0.009266 0.054230 0.003810
-0.003883 0.051643 0.008193
-0.000177 -0.042146 0.008566
-0.002215 0.048423 0.008116
0.003615 -0.025258 0.007916
-0.002881 0.040964 0.007623
0.008367 -0.053787 0.005394
0.009996 -0.047704 -0.001775
-0.004131 0.053126 0.008227
-0.006454 -0.057016 -0.006095
-0.000948 0.032456 -0.008304
-0.002441 0.026027 0.007748
-0.001787 0.026623 -0.008873
0.007168 0.054735 -0.004504
0.009870 -0.055557 -0.003675
0.000865 0.009207 0.008005
-0.005967 0.028209 0.006075
0.006976 0.031147 -0.003500
0.002598 -0.000025 -0.008773
-0.002190 -0.009970 0.007944
-0.003389 -0.021055 0.007639
0.007753 0.023495 -0.002181
0.007461 -0.051551 0.006268
-0.002672 0.030834 0.007525
-0.008250 -0.004259 -0.003811
-0.003894 -0.000774 -0.008411
-0.006709 0.024898 0.005417
-0.005408 -0.053830 -0.007305
-0.010175 0.052305 -0.000099
-0.008422 0.011060 -0.003288
0.000516 0.042567 -0.008594
0.005388 0.049586 0.005458
0.006797 -0.055708 0.002414
0.002296 -0.030105 0.008300
0.006624 -0.027652 -0.007025
0.005738 0.035704 0.003558
-0.001199 -0.025512 0.008259
-0.000032 0.012684 -0.009102
0.007050 0.050055 -0.003694
-0.007349 -0.023393 -0.004988
0.006366 0.028595 -0.005244
-0.003575 0.053757 0.008426
-0.003646 -0.007208 -0.008553
-0.006795 0.055548 -0.008156
0.008856 -0.020415 -0.001854
-0.003824 0.040188 -0.008077
-0.003258 0.054411 -0.005841
0.000909 0.059347 0.003182
0.000546 0.036645 -0.008173
-0.002502 0.053877 0.008536
-0.008617 0.053712 -0.005741
0.006711 -0.033252 0.006201
0.001319 0.034930 0.006615
0.003596 0.038408 0.006394
0.000194 -0.048331 -0.009600
-0.006332 0.051052 0.006801
0.004386 -0.045885 0.007966
-0.005294 -0.045900 0.006292
-0.004635 -0.031167 0.006852
0.005858 0.026751 -0.005893
-0.007391 -0.046661 0.003510
-0.001554 0.050106 0.008348
0.005264 0.050790 -0.006842
-0.005979 0.044216 0.006502
-0.006973 0.053691 0.006598
-0.010301 0.056168 0.001551
0.009374 -0.050012 0.003421
0.001596 -0.031786 -0.009393
0.006480 0.037017 -0.003188
0.007645 -0.001344 -0.004711
-0.008469 -0.000931 -0.003166
0.006406 0.031929 -0.004226
-0.006946 0.013217 -0.006124
0.002307 -0.009858 -0.008990
-0.003616 0.044591 0.007535
0.001617 0.013999 0.007844
0.005177 -0.007651 0.006727
-0.004048 -0.003680 -0.008335
0.005505 -0.049161 0.007535
-0.003913 0.052734 0.008195
0.000672 -0.035557 -0.009524
0.007188 0.051978 0.002780
-0.004263 0.056687 -0.003920
-0.000455 0.048140 -0.009234
0.009166 -0.055412 -0.005260
-0.000792 -0.009000 0.008196
-0.008752 0.039588 0.001578
-0.003547 0.014344 -0.008573
0.008059 -0.055729 0.005832
-0.002357 0.050527 0.008306
-0.005675 0.050826 -0.008209
0.001736 0.054500 -0.009060
-0.002099 -0.028648 0.008056
-0.005911 0.025549 -0.007191
-0.006661 0.007174 -0.006431
-0.001008 -0.005697 0.008149
-0.005922 -0.049487 -0.006710
0.002127 0.021926 0.007546
0.001363 0.042467 -0.008442
0.007917 -0.048341 0.005563
-0.007176 -0.003702 0.004606
0.002621 0.052040 -0.008536
-0.005543 0.029998 -0.007400
0.004461 -0.057214 0.005421
-0.000681 0.018076 0.008004
0.001771 -0.054361 0.005904
-0.008558 0.039917 0.002286
-0.001344 -0.050408 0.008478
0.001816 0.040371 0.007436
-0.002888 -0.058013 -0.006377
0.003658 -0.055543 0.008496
-0.004311 0.005478 0.007261
-0.003307 0.000199 0.007574
0.009124 -0.050553 0.003984
0.001148 -0.011629 -0.009188
-0.007983 -0.029860 0.002333
-0.005815 -0.043270 -0.006610
0.000771 0.027120 -0.008809
0.005596 0.010645 0.005551
0.006273 0.045181 0.003923
-0.003659 -0.055245 0.007560
-0.005203 0.057483 -0.003290
-0.004410 0.039457 0.006909
-0.000951 -0.023943 -0.009327
0.005574 -0.047972 0.007450
-0.002580 -0.036299 -0.009152
0.001961 0.007242 0.007839
-0.005034 0.015972 -0.007843
0.001583 0.043268 0.007584
0.006710 -0.001983 -0.006053
0.000877 -0.008521 0.008188
0.004693 -0.045716 0.007832
0.004605 0.026864 -0.007103
0.000224 0.031396 0.007603
-0.005229 -0.016017 -0.007615
-0.000196 -0.006125 -0.009245
0.004123 -0.027385 -0.008686
0.009422 -0.046157 0.002872
0.002995 0.023226 0.007168
-0.003007 0.039527 -0.008346
-0.000223 0.013842 -0.009057
-0.001352 -0.054555 0.008545
-0.005108 0.005078 -0.007692
0.002145 -0.003905 0.007950
-0.001859 -0.054960 -0.009329
-0.006953 0.049682 -0.007172
-0.003928 0.015285 -0.008428
-0.002454 -0.053772 -0.009109
0.004830 0.045979 -0.006930
-0.001250 0.025034 -0.008930
0.005848 0.048990 -0.005852
-0.001943 0.030266 -0.008731
0.007288 0.001153 -0.005394
-0.005573 -0.050645 -0.007146
-0.004317 0.049430 0.007802
0.008213 -0.045223 -0.005933
0.000992 0.005405 -0.009023
0.009552 -0.038736 -0.002308
-0.007512 -0.058209 -0.001352
-0.005585 0.051086 -0.008276
-0.008173 -0.050614 -0.002114
-0.002883 0.046847 0.007984
-0.000960 0.013549 0.008030
0.009424 -0.055369 -0.004745
0.000086 -0.036385 0.008515
-0.002844 -0.013956 0.007769
0.001236 0.044600 -0.008720
-0.008161 0.017608 -0.004030
0.003753 0.048008 -0.007690
-0.008908 0.025706 0.001400
0.007218 0.029347 -0.003433
0.001807 -0.011618 0.008119
-0.005005 0.000542 -0.007790
-0.002523 -0.035925 0.007994
0.009951 -0.054903 -0.003423
-0.003297 0.044505 -0.008596
-0.004276 0.039418 0.006939
-0.004332 0.055793 -0.009296
0.002791 0.037467 -0.007359
-0.008285 -0.055439 -0.000629
-0.006138 0.000105 0.005872
0.006299 0.039488 -0.004398
-0.001199 -0.056964 0.008517
-0.000245 0.043889 0.008141
-0.006034 -0.046136 0.005577
0.003810 0.030464 -0.007476
-0.002490 -0.005261 0.007848
0.007927 -0.018414 0.004315
0.000356 0.008229 -0.009102
0.002806 0.007053 -0.008579
0.003874 0.047515 -0.007642
0.000254 -0.032164 0.008487
0.000805 -0.055976 0.008838
-0.007531 0.036942 0.003733
-0.003095 0.042019 -0.008378
0.002344 0.053612 -0.008797
0.005121 0.033347 0.004369
0.000855 0.059696 0.003266
-0.002789 0.017555 -0.008872
-0.002498 -0.016674 0.007871
0.002277 0.005428 0.007810
-0.006264 0.038003 0.005389
-0.000241 -0.054960 -0.009688
0.006868 0.046070 -0.003829
-0.008200 -0.006337 -0.002771
0.001689 -0.035066 -0.009421
0.007411 0.017715 0.001874
0.009848 -0.050797 -0.003199
-0.003728 -0.041331 -0.008658
0.007993 -0.026243 0.004570
0.002809 0.007383 0.007724
0.010407 -0.055390 -0.001089
-0.007659 0.027719 -0.005304
0.009935 -0.044057 -0.000037
0.002602 0.023387 -0.008350
-0.000257 0.003326 -0.009185
0.005207 0.023012 0.005708
0.005464 0.013802 0.005655
0.006834 -0.048168 0.006577
-0.005577 0.031996 -0.006865
0.010178 -0.055729 -0.002729
0.009027 -0.035458 -0.003707
0.006011 -0.010168 0.005601
-0.008887 0.042046 -0.002805
0.003064 0.044164 0.007031
-0.005990 -0.021136 0.005701
-0.003265 -0.050468 0.007740
0.000500 -0.037139 0.008541
0.001210 0.039170 -0.008210
0.000783 -0.008314 -0.009240
0.007857 0.024789 -0.001229
0.001349 -0.040771 -0.009554
-0.006645 -0.005473 -0.006374
0.007538 -0.030209 -0.006214
0.003954 -0.056011 0.004616
0.006919 0.030640 0.002858
-0.009698 0.050651 -0.002955
0.000841 -0.043357 -0.009561
-0.008941 0.048689 -0.004705
-0.007214 0.038717 -0.005751
0.000791 -0.043699 0.008629
-0.001562 -0.001403 0.008032
-0.000743 0.014401 0.008036
-0.006836 -0.053114 0.004496
0.005008 0.015489 0.006194
-0.009674 0.048637 0.001916
0.001196 0.062258 0.002284
0.005111 0.023228 -0.006799
0.005454 0.025170 0.005430
-0.009489 0.050655 0.002809
-0.008760 -0.021582 -0.001038
-0.007523 0.042740 -0.005524
-0.008762 0.002352 -0.001599
-0.004414 0.016376 0.007176
-0.002831 0.048303 0.008022
-0.008616 0.026764 0.002498
-0.003831 -0.050435 0.007428
-0.003938 0.032726 0.006577
-0.007515 0.044228 -0.005728
-0.000221 -0.020191 -0.009359
0.005888 -0.007546 0.006026
0.000762 0.042411 -0.008529
-0.002387 -0.014386 0.007911
-0.006766 -0.015031 -0.006495
-0.006037 0.051492 0.007110
0.002389 -0.040133 0.008443
-0.006981 -0.048198 -0.005243
-0.005827 0.007638 0.006107
0.008307 -0.050560 -0.006152
0.008819 -0.013497 0.001609
-0.003036 0.013358 0.007642
-0.000363 -0.003748 -0.009226
-0.002287 -0.050748 -0.009131
-0.007458 0.043894 -0.005752
-0.008838 0.045386 -0.003999
-0.002636 -0.047025 -0.008926
-0.004321 -0.051318 -0.008135
0.004713 -0.057187 0.003779
0.002075 0.055648 0.008221
-0.006401 0.032528 -0.005871
0.007102 0.042088 0.002009
-0.008252 0.024396 0.003256
0.002149 -0.040160 -0.009405
0.008543 -0.008218 0.002182
0.001540 -0.047264 -0.009574
-0.000118 -0.021782 0.008351
-0.008256 -0.050767 -0.001620
-0.001938 0.056272 -0.009614
0.002374 -0.022536 0.008172
0.000070 0.036479 -0.008259
-0.002651 -0.025418 -0.008946
0.002535 0.026969 0.007299
-0.001167 -0.046723 -0.009378
0.003166 0.000455 0.007677
0.001632 -0.018166 -0.009197
0.002654 0.050466 0.007605
0.003823 0.042664 -0.007367
-0.004231 0.027644 -0.008188
-0.008608 0.045870 -0.004416
-0.003292 0.032012 0.007069
0.007362 0.017393 -0.004252
-0.006880 0.044055 0.005863
0.004724 0.041543 0.005699
-0.001726 0.055930 0.005140
-0.003729 0.025912 0.007370
-0.006858 0.051447 -0.007429
0.004637 0.032225 -0.006326
-0.002999 -0.035453 0.007861
-0.007397 0.036663 -0.004381
0.007785 -0.005669 -0.004760
-0.003125 -0.027052 -0.008736
0.001806 0.053200 0.008083
0.005600 -0.052710 0.007663
-0.007668 -0.037299 -0.004274
-0.001619 -0.001042 0.008020
-0.002570 0.056305 -0.009499
-0.004593 0.052437 0.007926
-0.008238 -0.017399 -0.003277
-0.001295 0.035525 0.007214
0.003983 -0.022076 -0.008636
0.000454 0.053830 0.008433
0.001975 -0.033270 -0.009364
-0.004380 0.014882 -0.008201
-0.005254 -0.037794 0.006395
-0.001961 0.051661 0.008448
0.000126 0.038880 0.007680
-0.008720 -0.001037 0.000886
0.001793 -0.034635 -0.009403
0.006971 0.021843 -0.004277
0.005897 0.031380 -0.005245
0.010400 -0.054596 0.000177
0.000319 0.041257 -0.008552
0.005060 -0.028843 0.007322
0.005743 -0.030723 0.006930
0.005338 0.030704 0.005184
-0.007492 0.018316 0.004575
-0.001498 0.027910 -0.008880
0.006850 -0.057886 -0.005153
0.000950 -0.057298 0.008776
-0.003534 0.042377 0.007439
-0.007048 0.048815 -0.007072
-0.007634 0.023096 -0.005242
-0.001130 0.037200 -0.008271
-0.005511 0.060811 -0.002768
0.002665 0.054466 -0.008647
0.000298 0.051319 0.008356
-0.005020 -0.048089 0.006549
0.003921 0.031236 -0.007236
0.004636 0.031805 -0.006490
0.004890 0.010190 0.006433
0.005605 -0.048750 0.007466
-0.006900 -0.046296 0.004392
-0.003240 0.055034 -0.009447
0.006424 0.007974 0.004681
0.006559 -0.034297 0.006524
0.000722 -0.033514 -0.009488
-0.007617 0.029377 -0.005403
-0.000390 0.022312 -0.008974
-0.004113 -0.003916 0.007294
-0.001495 0.055611 -0.005584
0.008272 -0.054181 0.005538
-0.007141 -0.027185 0.004561
0.006522 0.042234 -0.004210
0.008309 -0.023472 -0.004642
0.006138 -0.049931 0.007192
0.000593 -0.030377 -0.009465
-0.000595 -0.056249 -0.009630
0.008266 0.003925 -0.002591
-0.003062 0.007226 0.007623
0.000075 0.040871 -0.008581
-0.000120 -0.044308 0.008578
-0.004332 -0.051251 0.007118
-0.000491 0.027251 0.007928
-0.006525 0.045598 -0.006874
0.002089 -0.004687 -0.008983
-0.000707 0.033569 0.007000
0.004742 0.023801 -0.007090
0.007375 0.045317 0.001270
-0.007450 -0.033468 0.003718
0.008915 -0.013306 -0.000284
0.006284 0.052316 -0.005534
-0.006587 -0.049309 -0.005863
0.009053 -0.054318 -0.005358
0.010032 -0.050189 -0.002386
-0.009034 0.029883 0.000669
-0.004989 0.044448 0.006936
-0.007058 0.001665 0.004814
-0.007527 -0.050337 0.003203
0.001770 0.056248 -0.009197
0.000303 -0.057035 -0.009688
0.001857 -0.011112 -0.009069
0.010014 -0.046620 -0.001137
-0.002465 0.030028 0.007668
0.003344 -0.053091 0.008550
0.000539 -0.017049 -0.009323
-0.004596 0.046590 0.007391
0.003336 -0.016850 0.007829
-0.002573 -0.045042 -0.008930
-0.000085 -0.045903 -0.009536
0.002917 -0.034351 0.008230
0.004107 0.052080 0.006835
0.005500 0.040014 0.004996
0.007246 0.044935 -0.002334
0.006435 -0.055979 0.000871
-0.004112 0.006884 0.007281
-0.007442 0.039334 -0.005422
0.005395 0.022902 0.005530
-0.001921 0.004291 0.007947
-0.001360 0.006587 0.008029
-0.007725 -0.008662 -0.004623
0.009966 -0.050240 -0.002676
-0.006905 0.012566 -0.006197
0.007317 0.002352 -0.005184
-0.007325 0.036965 0.004102
-0.008165 -0.006336 0.002485
0.005974 -0.042822 0.007006
0.007909 -0.051059 0.005783
-0.005684 0.023735 -0.007337
-0.001025 -0.019456 0.008240
-0.006271 -0.051681 -0.006367
-0.007057 -0.050317 0.004089
0.008813 -0.052446 -0.005604
0.007021 -0.045609 -0.007236
0.008433 -0.032882 -0.005059
0.001982 0.025520 0.007524
0.007977 -0.046001 -0.006273
0.000309 -0.056763 0.008794
0.005315 -0.057646 0.004874
0.001270 -0.005517 -0.009110
-0.001756 0.051023 -0.009376
0.006546 0.043833 -0.004562
0.000276 -0.041832 0.008595
-0.005593 0.034103 0.004904
-0.009487 0.046093 0.001916
0.008482 -0.001060 -0.002460
0.006674 0.046931 0.003465
-0.000854 -0.026320 -0.009406
0.008587 -0.037836 0.004101
-0.004972 0.035481 -0.006918
0.001481 0.033034 -0.007757
0.002845 0.054876 0.007605
0.007472 -0.035708 -0.006537
0.002897 0.028188 0.007124
-0.000129 -0.033082 0.008468
-0.006051 -0.043640 -0.006354
0.006652 -0.038562 0.006479
-0.007689 0.019717 0.004401
0.005310 -0.046162 0.007528
0.008837 -0.048320 -0.005130
0.006330 0.041607 -0.004505
-0.001289 0.056477 -0.009566
-0.008992 0.050407 -0.004695
-0.009044 0.040416 -0.000400
0.003358 -0.052005 -0.009429
-0.003694 -0.030363 -0.008582
-0.005029 0.058012 -0.003399
-0.005148 0.039981 0.006756
0.003322 0.025839 0.006966
-0.003559 -0.036145 0.007637
0.009772 -0.057575 -0.002658
-0.000334 -0.012005 -0.009311
-0.008807 0.040814 0.001449
-0.001445 -0.031295 0.008245
-0.003488 0.023522 -0.008491
-0.000894 -0.011198 0.008196
0.002063 -0.018947 0.008167
0.002869 -0.007837 0.007846
0.001676 0.043572 -0.008526
-0.005276 0.012561 -0.007629
0.004092 0.025766 0.006517
0.007533 0.007483 0.003062
0.002417 -0.037685 0.008394
0.000972 -0.054106 0.008852
0.009558 -0.035216 -0.001494
0.008639 -0.055743 -0.006057
-0.009420 0.052632 0.003069
-0.005370 0.048380 -0.008311
0.007031 0.025742 0.003168
0.000529 -0.045353 -0.009569
-0.005693 0.009464 0.006186
-0.002529 0.014468 -0.009126
-0.003808 0.003220 -0.008369
0.008979 -0.029953 -0.002536
-0.004165 -0.052215 0.007258
0.006836 0.053206 -0.004683
0.007723 -0.018998 0.004773
-0.006562 -0.047326 0.004880
-0.008802 0.037957 -0.000032
-0.000655 0.024844 0.007952
-0.003808 0.046829 0.007597
-0.007387 0.011062 -0.005492
-0.007548 0.001303 -0.005246
-0.000940 -0.056877 -0.009545
0.004760 0.052384 -0.007323
0.003807 0.010160 0.007265
-0.000926 0.041656 -0.008673
0.004034 -0.032640 0.007945
-0.001433 0.000906 0.008038
-0.002415 0.007210 -0.008985
-0.002892 -0.011788 0.007732
-0.008118 -0.047802 0.001095
-0.004907 0.046344 0.007215
-0.002298 -0.056329 0.008177
-0.008815 0.046472 0.003657
-0.003709 0.007626 -0.008506
0.008208 -0.017475 0.003543
-0.006223 0.041874 0.006067
0.001876 -0.023639 0.008271
0.004025 0.030247 -0.007368
-0.001603 0.046545 -0.009178
-0.005462 0.006366 -0.007391
0.002853 0.003976 0.007742
0.001095 -0.039807 0.008568
-0.000219 0.024829 -0.008939
-0.008624 -0.016425 -0.000009
0.004357 0.047834 0.006262
-0.007179 0.055926 -0.001199
0.005507 0.039895 -0.005668
-0.000447 0.050467 -0.009311
-0.001509 0.046983 -0.009150
-0.001321 0.022240 0.007943
0.004015 -0.009598 -0.008382
-0.008570 -0.026385 -0.000254
-0.004420 -0.041858 -0.008036
0.007978 0.013561 -0.002717
-0.001605 -0.012289 -0.009303
-0.006859 -0.028144 -0.005997
-0.009836 0.052550 0.001910
-0.009386 0.051382 -0.004207
0.007382 0.024401 -0.003378
-0.009414 0.050017 0.002894
-0.004887 0.037470 -0.007471
0.000904 0.005187 0.008030
0.000515 -0.049443 0.008729
-0.000135 -0.058169 -0.008085
0.006767 -0.053611 0.006929
-0.005796 0.015610 -0.007274
-0.008619 0.004905 0.001323
0.003605 -0.025491 -0.008831
0.000683 0.025469 -0.008840
0.001209 -0.034606 -0.009476
0.004277 0.043965 0.006113
0.000795 0.050672 0.008224
0.000625 -0.005279 -0.009204
0.007933 -0.035317 0.004914
-0.009229 0.042365 -0.001512
-0.005842 0.060474 -0.002119
0.000352 -0.055202 -0.009745
-0.005832 -0.017395 0.005983
0.009004 -0.046540 0.003823
0.008845 -0.046644 0.004127
0.003868 0.039207 -0.006949
-0.003928 -0.040589 -0.008442
-0.006266 0.003038 -0.006751
0.010141 -0.048943 0.000008
-0.001035 -0.000299 0.008094
-0.002302 -0.018214 0.007945
-0.009141 0.023059 -0.000523
-0.004187 0.055822 -0.004782
-0.005340 -0.058112 0.003150
0.007498 0.016043 0.001492
-0.001132 -0.012169 0.008162
-0.002470 0.039020 -0.008398
0.004785 -0.056095 -0.009007
-0.002785 -0.000558 0.007734
0.000392 -0.029870 0.008456
-0.003683 0.046851 0.007622
0.005986 -0.007796 0.006083
0.006551 0.025828 -0.005011
0.001054 0.010806 -0.008945
-0.003060 -0.036854 -0.008954
-0.001520 0.029748 0.007851
-0.005110 -0.040246 -0.007537
0.004452 0.030161 0.006072
-0.008263 -0.052956 0.000062
-0.004980 0.055799 -0.004294
0.005801 -0.002757 0.005926
0.004450 0.055589 0.006536
-0.007607 -0.006717 0.004304
0.005084 0.022455 -0.006848
-0.006762 -0.041305 -0.005434
-0.003164 0.016638 -0.008741
-0.007600 0.028591 -0.005435
-0.001646 -0.056445 -0.009414
0.004538 0.005457 0.006764
0.007899 -0.037819 -0.005771
-0.002226 -0.032419 -0.009193
-0.008477 0.021270 0.002736
-0.008322 0.027046 0.003197
-0.003874 -0.001660 0.007387
-0.003407 -0.057424 0.003626
0.002222 0.036663 -0.007650
-0.004103 0.022812 -0.008246
0.006244 0.030741 -0.004937
-0.003002 0.011685 0.007639
-0.002784 -0.032007 -0.008941
-0.009159 0.044779 0.002611
-0.007378 -0.025671 0.004126
-0.002440 -0.029534 0.007966
-0.002071 0.036855 0.007138
-0.010537 0.055993 -0.001468
0.006266 0.030848 0.004005
0.001717 0.022869 0.007660
0.003759 -0.053416 0.008446
0.006240 -0.050359 -0.008064
0.000392 -0.006785 0.008201
0.007170 0.039509 0.001573
-0.004900 0.055320 -0.008896
-0.004386 0.029576 -0.008089
0.002362 0.020445 0.007504
-0.007587 0.001526 0.003977
0.007487 0.023948 0.002208
-0.001123 -0.048940 0.008483
0.006241 0.000675 0.005460
-0.006743 -0.016952 -0.006134
-0.007876 -0.008489 -0.004413
-0.005562 -0.047256 0.006059
-0.009027 0.025973 -0.001810
0.009827 -0.048575 -0.002824
0.007220 0.041203 0.001728
-0.001705 -0.057848 -0.008948
-0.008144 0.003071 -0.003974
0.008724 -0.030573 0.003477
-0.006653 0.009385 -0.006258
0.002720 0.012952 0.007656
0.001042 -0.056851 0.008840
-0.004470 0.031552 -0.007716
-0.007355 0.043516 0.005500
0.007720 0.024428 -0.002220
-0.002658 -0.007837 -0.009008
-0.006248 0.040462 -0.006668
0.001738 0.008719 0.007857
0.004073 0.027889 -0.007471
-0.005006 0.056178 0.008115
-0.001648 0.014384 0.007952
-0.002829 0.047751 -0.009138
0.006930 -0.050598 -0.007555
0.000485 0.029654 0.007784
0.001625 0.052482 0.008061
0.003754 0.034099 0.005455
-0.003243 -0.039468 0.007817
-0.002524 -0.055485 0.008117
0.008712 -0.013527 0.000989
-0.004593 0.033685 0.005826
-0.000532 -0.003235 0.008156
0.002345 -0.010294 0.007981
0.010445 -0.055393 -0.000462
0.009039 -0.052903 0.004335
-0.003094 0.012496 0.007616
-0.003799 -0.000137 0.007409
-0.000242 -0.026336 -0.009400
-0.005491 0.028440 0.006426
0.007727 0.028349 0.000439
-0.006890 -0.032225 -0.005705
-0.005093 0.016916 -0.007853
0.007020 0.046588 0.002593
0.008960 -0.012965 -0.001317
-0.000744 -0.020106 0.008284
-0.001782 -0.013631 0.008061
0.006868 0.056603 0.003103
-0.007094 -0.029401 0.004563
0.001631 0.012950 -0.008833
-0.010104 0.054118 -0.002560
-0.003494 -0.007297 -0.008642
-0.002815 0.055359 -0.009542
0.005495 0.031711 -0.005619
0.002281 0.035459 0.006458
0.009132 -0.023093 -0.000857
-0.007180 -0.051529 -0.004938
-0.005383 -0.040396 -0.007246
-0.001468 0.000760 0.008031
-0.007282 -0.053481 -0.004752
0.003078 -0.013582 0.007880
-0.002606 -0.052467 -0.009040
0.008268 -0.052130 -0.006317
0.007930 0.004591 0.003151
-0.006866 0.029986 0.005188
-0.002558 -0.056115 0.003855
-0.002445 0.045058 -0.008892
-0.006427 -0.051451 -0.006161
0.002220 0.056707 -0.008339
-0.005665 -0.054333 0.006009
-0.007035 0.039199 0.004777
0.010004 -0.046966 0.000522
-0.000234 -0.028738 0.008412
0.001836 -0.033312 0.008414
0.005378 0.046525 0.005279
-0.007697 0.018390 -0.005020
-0.008184 0.033117 0.001184
0.002686 -0.006273 0.007875
-0.003937 0.051843 0.008300
-0.006796 0.040038 0.005318
0.000227 0.054330 0.008568
0.006261 -0.037392 0.006900
0.001668 0.044086 -0.008567
-0.000365 -0.024230 0.008363
-0.006566 -0.053223 0.004912
-0.007367 0.043222 -0.005740
-0.000567 0.025875 -0.008941
0.006934 0.045432 -0.003821
-0.000885 -0.037313 0.008402
0.005502 0.023453 0.005418
-0.007714 -0.014204 -0.004556
0.009826 -0.047729 0.001822
0.001640 -0.002312 -0.009043
-0.002199 -0.054658 -0.009212
-0.004796 -0.057924 -0.007207
0.005283 0.032567 0.004555
-0.003818 -0.049103 -0.008390
-0.007785 -0.037934 0.002706
-0.000162 -0.008465 -0.009296
-0.003938 0.010519 -0.008370
0.007536 -0.015150 -0.005730
0.006934 0.044509 -0.003810
0.006612 -0.036138 0.006248
-0.007697 -0.054434 0.002880
0.000139 0.025642 -0.008905
-0.003823 -0.015686 0.007528
0.005294 0.013034 0.006033
0.007500 -0.026095 0.005119
0.008093 -0.055596 0.005795
-0.005196 -0.034043 -0.007498
0.009227 -0.047005 -0.004293
-0.002966 0.060687 0.003781
0.007678 0.027696 -0.001972
0.000915 -0.018721 -0.009320
0.009422 -0.047656 0.003045
-0.000433 -0.053749 0.008716
-0.007516 0.050846 0.005607
-0.002380 -0.031650 0.008007
0.000657 0.048634 0.008001
0.009314 -0.033660 -0.002095
-0.004941 -0.057571 -0.007420
-0.004516 0.027794 0.007028
-0.000158 0.037315 -0.008318
-0.004512 0.022529 -0.008052
0.005498 0.053706 -0.006588
0.001599 -0.018934 -0.009226
-0.004158 0.042457 -0.008104
0.002272 -0.030558 0.008307
-0.008909 0.040046 0.000746
-0.000577 0.036402 -0.008231
-0.002748 -0.044056 0.007885
0.002550 -0.019840 -0.009075
0.003503 0.037077 0.005898
-0.007037 -0.005226 -0.005943
0.010206 -0.054366 -0.002422
0.004174 0.052372 0.006857
0.009503 -0.045931 0.002660
-0.001538 0.052330 0.008616
-0.003896 -0.046894 -0.008310
0.008133 -0.033240 0.004556
0.008087 -0.001629 0.003181
-0.000548 0.044145 0.008148
-0.004260 0.058489 -0.004113
0.002179 0.023325 -0.008510
0.009210 -0.056493 0.004232
-0.001034 -0.037268 0.008378
-0.000977 0.003586 -0.009141
0.000444 0.030046 -0.008765
0.001024 -0.015321 0.008262
-0.003597 0.029843 -0.008387
0.009868 -0.054217 0.002687
0.002950 0.023096 0.007201
0.009674 -0.048565 0.002535
-0.003795 -0.038522 -0.008629
0.003847 -0.031499 0.007965
-0.006613 -0.023023 -0.006162
-0.003236 -0.014379 -0.008817
-0.003701 -0.055172 0.002383
0.003832 -0.056012 -0.009341
0.008099 -0.008096 0.003260
0.002122 0.040623 -0.007990
-0.003634 0.035202 0.006420
0.001266 0.056219 0.008305
0.003783 -0.047617 0.008221
-0.001244 0.040558 -0.008569
-0.002142 -0.003201 0.007926
0.004124 0.030878 -0.007183
-0.002983 -0.028669 -0.008832
0.007233 0.045235 -0.002383
-0.001559 0.032682 0.007203
-0.009589 0.050607 0.002491
0.002568 0.038717 -0.007573
0.000414 0.026790 -0.008864
-0.000217 -0.039368 0.008513
-0.006448 0.000931 0.005598
-0.005880 0.053563 0.007360
0.007791 -0.023847 0.004924
-0.004601 -0.010470 0.006960
0.005868 -0.032758 0.006987
0.001880 0.003433 0.007921
0.000167 -0.027174 0.008431
0.002822 -0.030917 -0.009168
-0.002273 -0.017504 0.007943
0.005911 0.031553 -0.005155
0.002848 0.007521 0.007714
-0.002069 0.000785 0.007917
0.001025 0.060386 0.003174
0.010235 -0.051355 0.000557
0.008057 -0.033857 0.004750
-0.001233 -0.029815 0.008283
-0.003138 0.026544 -0.008596
-0.003781 0.008186 0.007387
-0.005001 -0.049167 0.006585
0.007449 -0.010114 -0.005469
-0.007373 0.056501 0.002257
-0.001665 -0.031722 -0.009290
-0.008602 0.029292 0.002552
0.002842 0.042228 -0.007985
0.004205 0.043219 -0.007154
0.006874 0.035672 0.000156
0.005034 -0.038952 0.007587
0.004789 0.047515 -0.007010
0.009522 -0.039869 0.001649
-0.002349 0.000092 0.007849
0.000454 -0.002328 -0.009188
0.000758 0.031763 -0.008397
-0.000987 0.048045 0.008301
0.004864 -0.022293 0.007337
-0.004401 -0.029385 -0.008122
0.001944 0.045790 -0.008544
-0.006312 -0.045676 -0.006221
0.004108 0.034931 0.005567
0.004777 0.056515 -0.002034
0.003307 -0.034301 -0.009070
-0.006822 0.048468 0.006298
0.007018 -0.029943 0.005753
0.006472 -0.033863 0.006505
0.010067 -0.048363 0.000560
0.002558 0.045146 0.007192
-0.004970 -0.028979 0.006507
-0.001194 0.003977 -0.009116
-0.001106 0.043239 -0.008761
0.000764 -0.055355 -0.009761
0.000013 0.049369 -0.009228
-0.000894 -0.000497 0.008114
-0.001892 0.003200 0.007945
-0.005077 0.038004 -0.007437
0.000140 -0.030246 0.008456
0.006371 -0.057039 -0.000013
0.000042 0.033892 0.006860
-0.000841 0.036078 -0.008209
0.006479 0.023121 0.004241
0.002858 -0.041767 -0.009301
-0.008471 -0.013360 -0.002470
0.001313 0.036894 -0.007974
0.008205 -0.038584 0.004879
-0.006726 -0.058259 -0.000488
-0.002647 -0.053609 0.008082
0.003514 -0.040272 0.008211
0.002611 -0.049605 -0.009502
0.003407 -0.041616 0.008245
0.008035 -0.018466 0.004205
-0.009533 0.054791 0.003567
0.003224 0.039370 0.006636
0.003401 0.007114 0.007597
0.007783 -0.051477 -0.006822
0.000239 0.060738 -0.004983
0.009242 -0.017000 0.000460
-0.001426 -0.047082 -0.009319
0.007569 -0.000381 -0.004669
0.008077 -0.023073 -0.005148
-0.004495 -0.008607 0.007143
0.001614 -0.037211 -0.009461
0.006130 -0.026335 -0.007298
0.004145 0.048918 0.006603
0.005369 0.017559 0.005725
-0.002690 -0.005990 -0.009073
-0.004976 -0.054994 -0.007649
-0.002926 -0.044416 -0.008774
-0.005957 0.020337 0.006101
0.009497 -0.053876 -0.004471
0.006407 0.040903 -0.004551
0.000359 0.009468 -0.009081
-0.002480 -0.058177 0.006749
0.010003 -0.056368 -0.003330
0.006896 -0.028861 0.006120
0.007225 -0.027307 0.005352
-0.005340 0.052284 0.007525
0.002625 0.040944 -0.007866
-0.000999 0.009222 0.008052
0.005114 0.008350 0.006209
0.005632 0.030377 0.004909
0.004543 0.048531 0.006223
-0.004999 0.012578 -0.007790
0.000167 0.040123 -0.008508
-0.008777 0.050987 -0.005149
-0.008173 -0.026786 -0.002483
-0.001388 -0.052536 0.000140
0.004891 0.038241 0.005086
0.007476 -0.018159 0.004703
0.003957 0.033549 0.005389
-0.003922 -0.026067 -0.008379
0.004569 0.023984 0.006230
0.005779 0.050728 0.005030
-0.004586 -0.044756 -0.007849
0.003553 -0.025464 0.007944
-0.006247 -0.050604 0.005323
-0.003414 -0.054873 -0.008679
-0.009255 0.047145 -0.003326
0.008226 -0.050402 -0.006247
0.000109 -0.033472 -0.009463
0.003723 0.051502 0.007068
-0.000229 0.046864 -0.009089
0.007002 -0.024458 -0.006637
-0.002778 0.040155 0.007617
0.006986 0.054043 0.003092
-0.008228 0.010225 -0.003876
0.005520 0.027272 0.005289
-0.000872 -0.052429 -0.009562
0.007406 0.040551 -0.000561
-0.005085 -0.004180 -0.007655
0.000132 -0.021243 -0.009377
0.002310 -0.045485 0.008529
0.001814 -0.042220 0.008554
0.002361 -0.057160 -0.006805
-0.000952 0.058669 0.004044
-0.000781 0.026736 0.007938
-0.003929 0.043724 -0.008272
0.000908 -0.055569 0.008844
0.001825 0.044682 -0.008578
-0.007038 -0.051961 -0.005211
-0.001058 0.062467 0.001816
0.000761 -0.032755 -0.009483
0.006340 0.027331 0.004280
-0.004430 0.044834 -0.008232
0.004600 0.027491 0.006105
0.004036 -0.042033 0.008070
0.007289 0.021673 -0.003539
-0.001920 0.059171 0.004093
0.005041 -0.053830 -0.008872
0.008250 0.010964 0.001955
0.006391 0.050140 0.004156
0.001363 0.004519 -0.008967
-0.002003 -0.020519 0.008047
0.002937 -0.052585 -0.009536
-0.005430 0.033105 0.005445
-0.003361 0.007939 -0.008625
0.002455 -0.037546 0.008387
-0.006411 -0.048539 -0.006083
0.005277 0.026013 -0.006546
-0.007144 0.007800 -0.005845
0.004582 -0.057283 0.008100
-0.005719 0.026528 -0.007326
0.000720 0.006109 -0.009051
-0.007589 0.017682 0.004384
0.000916 -0.039466 -0.009564
0.006133 0.027495 0.004577
0.008237 0.002349 -0.002788
-0.003654 0.053726 -0.009220
-0.004117 -0.047309 0.007195
0.008411 -0.017623 0.003240
0.002957 0.059849 0.001284
0.007532 0.028407 0.001603
-0.001549 -0.013227 -0.009271
0.006641 0.026202 0.003835
-0.003779 -0.042241 -0.008665
0.006077 0.029655 0.004502
0.005069 -0.017631 0.007119
-0.000727 0.030392 0.007822
-0.004255 0.044120 0.007248
0.004636 0.010683 -0.007603
-0.004120 0.037100 0.006543
-0.000137 -0.007072 0.008208
-0.001691 -0.052831 0.000986
-0.008675 -0.017731 0.000849
0.007465 0.007694 -0.004617
0.007068 -0.023511 0.005548
0.009135 -0.040169 -0.004842
-0.000208 -0.010475 -0.009311
-0.002215 0.030370 -0.008680
-0.002106 0.038828 0.007561
-0.003005 -0.035339 -0.008993
0.007087 -0.039429 0.006091
0.002080 0.034827 -0.007267
-0.004629 0.055468 0.008273
-0.008036 0.009746 -0.004278
-0.004428 -0.035393 -0.008113
0.008856 -0.049436 -0.005245
0.002304 -0.045318 -0.009447
0.008436 -0.024024 -0.004215
0.010014 -0.050038 -0.002425
0.008033 -0.048181 -0.006273
0.002246 -0.057875 0.008168
-0.000019 -0.008951 0.008227
-0.006861 0.022108 -0.006245
0.000400 0.031348 -0.008564
-0.001013 0.058990 0.004012
-0.008389 0.025014 0.003007
-0.001812 0.061033 0.004279
0.009777 -0.052115 -0.003619
-0.009098 0.027846 -0.001550
-0.002334 -0.055229 0.008205
0.008730 -0.053281 0.004849
-0.003999 0.024802 -0.008293
0.002849 -0.006292 -0.008800
0.003746 0.041141 -0.007391
-0.002017 -0.052883 -0.009267
-0.007711 0.052018 0.005704
0.004879 -0.055446 0.003253
0.002198 0.042386 -0.008237
-0.007808 0.049805 0.005232
-0.003217 -0.019303 -0.008736
-0.004618 0.053982 -0.008920
-0.003672 0.040745 -0.008104
-0.006562 0.049023 0.006405
-0.002055 0.042369 -0.008621
-0.004975 -0.026157 -0.007744
-0.000350 -0.025155 0.008378
0.010051 -0.055327 -0.003136
-0.001798 -0.020253 0.008097
0.005054 0.022922 -0.006860
0.002758 0.047569 -0.008253
0.009988 -0.047043 -0.001615
-0.008953 0.042419 -0.002694
0.000844 -0.041717 0.008608
0.002129 0.003642 0.007866
0.007943 -0.052741 -0.006722
0.008332 -0.051508 -0.006207
0.002078 0.047425 -0.008608
0.006899 0.025848 0.003406
-0.004746 0.000286 -0.007836
0.006082 0.007805 0.005267
0.008357 -0.046649 0.004929
-0.010098 0.053691 -0.002411
0.007826 -0.046238 -0.006461
0.005019 0.025886 -0.006787
0.005474 0.049527 0.005346
0.008451 -0.003861 0.002195
-0.007273 0.047266 0.005816
-0.000592 0.011732 0.008061
-0.003598 0.009922 -0.008440
0.005576 0.024179 0.005341
-0.002145 0.001539 -0.009070
0.010082 -0.054992 -0.003003
0.000732 0.033790 0.006792
-0.006024 -0.046796 -0.006587
0.001843 -0.027713 -0.009312
-0.006025 -0.053432 -0.006686
0.005257 -0.053774 0.007866
0.002513 -0.020605 -0.009094
0.000346 0.031039 -0.008636
0.005352 -0.015494 0.006810
0.007086 -0.024419 0.005643
0.002778 -0.006995 0.007840
0.002562 0.020421 0.007407
0.001213 -0.015546 0.008243
-0.007603 -0.055672 0.003028
-0.006320 0.053902 0.007098
-0.007778 0.047618 0.005306
0.000599 0.051633 -0.009238
0.005165 0.027886 -0.006614
-0.007334 0.029858 0.004661
-0.008837 0.020972 0.001512
-0.006686 0.050005 -0.007359
0.009792 -0.053220 -0.003696
-0.000968 -0.056409 -0.009564
0.006048 0.032113 -0.004690
-0.002122 0.004659 0.007909
-0.002847 0.001611 -0.008774
-0.008472 0.027158 -0.003775
-0.007527 0.012378 -0.005366
-0.007510 0.056617 -0.006858
-0.005806 -0.050317 0.005829
0.000271 0.027154 0.007886
-0.008086 -0.028947 -0.003566
0.005348 0.043505 -0.006249
0.002270 -0.024098 -0.009201
-0.002696 0.041669 0.007614
0.005380 -0.039784 -0.008396
-0.006272 0.026549 0.005825
0.008140 -0.037077 0.004650
-0.000126 0.052899 0.008527
0.006482 0.011677 0.004755
-0.008656 0.022913 -0.003126
-0.008384 -0.015345 0.000914
-0.007920 0.004615 0.002774
0.002045 0.017167 -0.008682
0.006442 -0.018623 0.006012
-0.008247 -0.056094 -0.001318
-0.004014 -0.014243 0.007367
-0.006255 0.045598 -0.007113
0.001962 0.039455 -0.007947
0.003284 -0.047561 0.008368
-0.007264 0.026831 -0.005825
-0.006143 -0.003900 -0.006789
0.007678 0.028188 0.000945
-0.004058 -0.055945 0.007302
0.006338 0.028918 -0.005223
-0.005497 -0.051120 0.006124
-0.006215 -0.017590 -0.006704
-0.008936 0.048528 0.003686
0.000845 0.022140 0.007855
-0.004947 -0.038202 -0.007725
0.007368 0.041935 -0.000030
0.000878 -0.052505 0.004511
0.000834 -0.012972 -0.009277
0.007243 0.016289 0.003306
-0.005433 0.039503 0.006319
-0.002666 0.054771 -0.009517
-0.007542 -0.016792 0.003626
-0.001233 0.035151 0.007018
-0.006913 0.042284 0.005535
0.004950 0.028158 0.005810
-0.000806 0.042364 -0.008761
0.006109 -0.016880 0.006036
0.006042 0.018276 0.005218
-0.007397 0.023539 0.004611
-0.008028 0.001199 0.003310
-0.003923 0.025651 0.007292
0.000741 -0.009069 -0.009231
-0.004744 -0.058103 -0.006823
-0.004127 -0.055289 -0.008255
0.001527 -0.021082 -0.009273
0.010016 -0.050829 0.001708
-0.004417 -0.050486 0.007041
0.003155 0.057361 -0.002126
-0.003178 0.030135 -0.008491
0.009956 -0.045707 0.000538
-0.000062 0.015245 0.008032
-0.006881 0.024605 0.005249
-0.006949 0.034040 -0.004375
0.008534 -0.056495 0.005293
0.001984 0.023080 -0.008577
0.001769 -0.028857 0.008350
0.006164 -0.052042 -0.008197
-0.003662 -0.038121 -0.008670
-0.005626 0.037037 -0.006546
-0.007691 -0.023800 -0.004627
0.002792 0.043156 -0.008044
-0.006603 -0.058176 0.002293
-0.007322 0.042616 -0.005739
-0.004270 -0.021053 0.007063
0.003051 0.047058 -0.008126
0.007598 -0.056068 0.006294
-0.003682 0.030197 -0.008325
-0.008831 0.023892 -0.002583
0.001807 -0.015157 0.008155
-0.009066 0.052380 0.004088
0.001297 0.021990 0.007776
-0.002867 0.049598 -0.009207
-0.000357 -0.031733 -0.009413
0.003175 -0.041479 0.008292
0.006064 -0.051871 0.007356
0.002773 -0.001698 0.007774
-0.006390 -0.015580 -0.006839
-0.003637 -0.032237 0.007636
0.000629 0.028070 0.007817
0.005918 0.054296 -0.006129
-0.006006 0.054998 0.007450
-0.000407 0.017294 -0.009086
-0.003420 0.007474 0.007504
-0.002705 0.011760 0.007730
0.000644 -0.056398 -0.009755
0.006711 -0.051289 0.006883
0.002726 0.014633 0.007601
0.002579 -0.018510 -0.009065
0.005398 0.024127 -0.006513
-0.001987 0.047100 -0.009156
0.002212 0.040441 -0.007938
-0.009109 0.042048 -0.001680
-0.008852 0.002245 0.000267
0.008348 -0.041820 0.004492
-0.006344 -0.007826 -0.006718
0.006925 0.032087 -0.002912
-0.004523 0.035359 0.005825
0.006514 -0.032703 0.006269
-0.005490 0.059101 0.001420
0.006923 -0.045629 0.006369
-0.000519 -0.001723 -0.009213
-0.000849 0.024148 -0.008956
0.000987 0.010237 0.007972
0.007534 -0.057203 -0.003053
0.003829 0.015695 0.007209
0.008114 -0.053696 -0.006587
-0.008202 0.026765 -0.004341
0.006053 0.027257 -0.005633
0.007311 0.030278 0.001980
-0.004460 0.036519 0.006199
0.001930 0.061663 -0.003850
0.005533 0.032673 -0.005016
-0.003852 -0.019566 0.007407
0.008799 -0.017341 -0.002956
0.000697 0.009678 -0.009010
-0.007409 0.001504 -0.005478
-0.003675 0.045076 0.007621
-0.007562 0.051997 -0.006793
0.000385 -0.040334 0.008568
-0.007656 0.013407 -0.005138
0.001508 0.039880 -0.008104
-0.004467 0.017930 0.007146
0.009088 -0.052586 -0.005177
0.002564 -0.000791 -0.008799
0.000486 -0.042295 -0.009541
-0.000277 -0.000998 -0.009218
0.005424 -0.051897 -0.008630
-0.001068 0.014129 -0.009077
-0.005861 0.037721 -0.006603
0.000452 0.028172 -0.008840
0.006464 0.053066 0.004216
0.006363 0.016077 -0.005911
0.009692 -0.053171 0.003059
-0.006967 0.006033 0.005532
0.010370 -0.053564 -0.000651
-0.008657 0.003029 -0.002423
-0.006132 0.026677 0.005944
-0.010488 0.056152 0.000034
-0.003210 -0.025414 0.007732
0.003854 -0.055146 0.004242
-0.000725 -0.046756 0.008509
0.006710 0.038889 -0.003159
0.004712 0.047238 -0.006992
-0.003126 0.002772 0.007624
-0.000257 0.009152 0.008084
-0.002924 0.051652 0.008318
0.006411 -0.052662 0.007140
-0.008262 -0.049830 0.000216
0.007189 0.039886 0.001357
-0.005266 0.021457 0.006583
-0.005087 0.018337 -0.007720
0.003550 0.057340 -0.000474
0.009222 -0.051976 0.003982
0.005945 -0.054856 -0.000262
0.002225 -0.053418 0.008776
0.006879 -0.046365 0.006448
0.003799 0.050006 0.006756
0.004797 0.014972 0.006334
-0.000697 0.053653 0.008507
-0.000904 0.049180 0.008456
0.005634 -0.015781 0.006674
-0.003241 -0.028247 -0.008736
0.007334 -0.021374 -0.006199
-0.007504 0.042804 0.004954
-0.001253 0.055251 0.009061
-0.006701 -0.045866 -0.005682
0.002929 0.047512 0.007292
-0.008024 -0.022962 0.002334
-0.006528 0.017864 -0.006698
-0.003910 0.005096 -0.008402
0.009492 -0.038118 0.000110
-0.008819 0.000124 -0.000637
0.006842 -0.029067 0.006019
0.001081 -0.046722 0.008667
0.004523 0.046238 -0.007188
-0.003581 -0.046030 0.007490
0.001059 -0.023797 0.008361
0.001860 0.010207 0.007829
0.000712 -0.007336 0.008195
-0.004651 0.044178 -0.008077
-0.009029 0.022806 -0.001641
0.009527 -0.023611 0.000062
0.007751 0.028010 -0.001450
-0.004447 0.032555 -0.007385
0.002714 0.021437 -0.008337
0.000649 0.030329 -0.008704
0.002661 -0.013845 -0.008959
-0.006595 0.024252 -0.006550
0.007159 -0.047340 -0.007178
-0.008545 -0.030157 -0.000487
-0.003353 0.038356 0.007051
-0.003927 0.025035 0.007293
-0.001356 -0.055793 0.008528
0.002340 0.029050 0.007328
-0.001022 -0.037271 0.008381
-0.007522 0.035567 0.003200
0.002446 -0.016792 0.008056
-0.003381 -0.056387 0.007695
-0.000953 0.058049 0.004033
0.006012 0.025051 -0.005800
-0.004214 0.039900 0.007104
0.007881 0.001258 0.002130
0.000035 -0.052657 -0.006552
0.000597 0.042839 -0.008627
-0.007588 0.045632 -0.005770
0.001340 -0.039587 0.008555
-0.007889 0.033489 0.001824
0.008118 0.016878 -0.000433
-0.004165 -0.030422 -0.008235
-0.009604 0.054156 -0.004142
0.004966 0.024334 -0.006893
0.000210 0.007041 -0.009115
0.009626 -0.053240 0.003213
-0.000805 0.051546 0.008590
0.007876 0.055500 -0.001813
0.005009 0.013338 0.006233
0.002079 -0.024195 -0.009233
0.007403 0.043138 -0.001307
-0.009198 0.042312 -0.001640
0.000120 -0.057044 0.008728
-0.001043 -0.009999 0.008177
-0.007739 -0.050701 -0.003670
0.004274 -0.047837 -0.008982
0.003844 -0.057494 -0.009111
0.006957 0.013261 -0.005259
-0.003778 -0.043961 0.007364
0.001484 0.009278 -0.008905
-0.009121 0.026846 -0.001056
-0.005184 -0.056087 0.006437
0.002706 0.049582 -0.008376
0.006856 0.040701 0.002888
-0.008478 0.053924 -0.005933
-0.000787 -0.002981 -0.009217
-0.003167 -0.026662 0.007739
-0.000867 -0.026536 0.008324
0.007824 0.011227 0.003607
0.006237 -0.028232 -0.007232
-0.008292 -0.049393 -0.001024
0.001742 0.012372 0.007822
-0.004912 -0.049335 0.006651
0.005354 0.053105 0.005775
-0.005174 -0.057019 0.006428
0.006619 0.025491 0.003919
0.009570 -0.051070 -0.004034
0.000037 -0.018204 0.008329
0.001475 -0.043634 0.008601
-0.008128 -0.029471 0.001544
0.007720 0.053244 0.000661
0.006041 -0.033902 0.006974
-0.003304 -0.041087 0.007772
-0.007658 0.040402 -0.005063
-0.007744 0.006020 0.004439
-0.000713 -0.031256 0.008388
-0.007123 0.048216 0.006112
-0.000882 -0.055281 0.005752
-0.007064 0.013142 -0.005974
0.002510 0.057485 0.002295
0.010053 -0.050803 -0.002458
0.007977 -0.006712 0.003676
-0.002096 -0.053158 -0.009241
0.007989 0.056947 -0.001667
0.007731 -0.033097 0.005175
-0.009414 0.051704 0.003391
0.000518 -0.048914 -0.009631
0.005958 -0.015145 0.005979
-0.005614 -0.050337 0.006010
-0.006012 -0.048141 0.005612
0.004847 0.021867 -0.007044
-0.009988 0.052856 -0.002711
0.001499 0.017428 0.007818
-0.000351 -0.019150 0.008304
-0.003540 -0.031827 -0.008655
0.008717 -0.006213 0.000607
-0.004564 0.043390 -0.008023
0.003577 -0.047237 -0.009198
0.006222 0.040093 0.003868
0.000311 0.038973 -0.008440
-0.007972 0.006568 -0.004550
0.002306 -0.053397 -0.009654
0.007548 -0.007023 0.004291
0.009927 -0.044598 0.000611
0.001836 -0.006925 -0.009021
0.003236 0.053281 0.007331
0.001345 0.044933 0.007726
-0.007205 0.013877 -0.005802
-0.006129 0.040754 -0.006794
0.002014 -0.044081 -0.009473
0.003019 0.029506 0.007009
-0.007809 -0.028524 -0.003949
-0.009840 0.055174 -0.004093
0.001674 0.001661 0.007958
0.006318 0.003200 0.005180
-0.004645 -0.030931 -0.007860
0.000475 0.033040 -0.007992
-0.000250 0.012445 -0.009125
0.007462 0.053112 -0.003254
-0.007034 0.032412 0.004192
0.003651 0.015845 -0.008060
-0.003236 -0.012515 -0.008773
-0.009702 0.053792 -0.003887
0.001621 -0.055199 0.008840
-0.004556 0.025794 0.006997
-0.000238 -0.030122 0.008426
-0.000863 0.046397 0.008058
0.006026 0.026652 0.004756
-0.007809 -0.022138 0.003103
-0.005830 -0.037189 0.005834
-0.009986 0.053375 -0.002890
0.006300 0.051310 0.004385
-0.007787 0.038941 -0.005050
0.007703 0.029267 -0.001428
0.004583 0.024854 -0.007185
0.000465 0.043927 -0.008775
0.003185 -0.043407 -0.009234
0.007788 -0.044586 -0.006425
-0.000232 0.030384 -0.008794
-0.000492 -0.026806 0.008379
0.001669 -0.020638 0.008260
-0.007370 -0.015362 -0.004993
0.008143 0.016232 -0.002911
0.005514 0.041383 -0.005872
0.008345 -0.044423 -0.005721
-0.000427 0.022268 -0.008976
-0.004440 0.023915 0.007050
0.010441 -0.055429 -0.000605
0.000957 -0.041296 0.008595
0.003668 0.042297 0.006610
0.003900 0.056866 0.000397
-0.001802 0.052400 0.008537
0.007739 0.006203 0.003162
-0.007588 0.040607 0.004457
-0.001449 0.037155 -0.008273
-0.007440 -0.054234 -0.004407
-0.004622 0.014556 -0.007996
-0.008360 0.007474 0.002598
0.003348 -0.031059 -0.009012
0.001332 -0.048498 0.008702
-0.002312 -0.058120 0.005994
-0.001455 -0.015270 0.008129
-0.004954 -0.056115 0.006635
-0.002130 -0.010526 -0.009155
-0.004800 0.053769 -0.008793
0.002852 0.048477 0.007339
0.006935 -0.033062 0.006039
-0.006082 -0.003104 0.006004
-0.005057 0.042295 0.006873
-0.003837 0.027774 -0.008353
-0.001609 0.058577 -0.005006
-0.005469 0.023778 -0.007481
-0.004148 -0.050532 0.007226
0.002031 0.032578 0.006826
0.009848 -0.043022 -0.000572
0.008800 -0.019784 -0.002241
0.000256 -0.013232 0.008268
-0.002887 0.041640 -0.008370
-0.004827 -0.008287 -0.007704
-0.007168 -0.009557 0.003456
-0.008274 -0.029296 0.000828
-0.004125 -0.053131 -0.008265
-0.006358 -0.011199 0.005248
0.007359 -0.004491 -0.005332
0.000448 0.026934 -0.008858
0.009344 -0.050321 0.003521
-0.004974 0.049910 -0.008429
-0.010064 0.053646 -0.002541
0.004439 0.020151 -0.007140
0.002447 0.013733 0.007686
0.007566 -0.050986 -0.007006
0.003986 0.043887 0.006451
0.004087 -0.054360 -0.009254
-0.001890 -0.052759 0.003400
-0.004216 0.023471 -0.008192
0.008169 0.002287 -0.003090
0.004448 -0.054637 0.008225
0.003922 0.035941 0.005641
-0.000099 -0.052396 0.008757
0.003177 -0.057359 0.008537
-0.009098 0.054018 0.004061
-0.007208 -0.048832 0.003845
-0.008440 -0.027204 -0.000864
0.008137 -0.057636 -0.002440
0.008554 -0.049606 -0.005713
-0.003114 -0.032995 0.007792
0.003394 0.022121 -0.008009
-0.000723 0.016860 0.008019
0.007300 -0.049492 0.006258
-0.001561 -0.024614 0.008188
0.001622 0.041781 -0.008362
-0.000284 0.055719 0.005275
0.007711 -0.030216 0.004945
-0.007242 -0.051971 0.003842
-0.003658 -0.051044 -0.008522
-0.001992 0.040455 0.007800
-0.002396 -0.055143 -0.004156
-0.007234 0.037871 -0.005464
0.002959 -0.038516 0.008292
0.002207 -0.033524 -0.009329
-0.007643 0.022504 -0.005223
0.003022 -0.053009 -0.006590
0.007681 0.026017 0.001233
-0.000741 0.041740 -0.008698
0.007591 0.030514 0.000272
0.006134 -0.048864 0.007131
-0.005702 0.026676 -0.007331
-0.002599 0.048084 0.008082
-0.008896 0.024116 -0.002369
-0.005802 0.027105 0.006219
0.003570 0.052137 -0.008084
-0.003157 0.017872 -0.008736
0.002358 -0.016144 0.008058
-0.002570 0.056483 -0.004837
-0.003585 -0.043715 0.007483
0.006329 -0.052313 0.007189
-0.006101 -0.022745 -0.006752
0.002307 -0.044079 -0.009426
0.007152 0.050783 0.002868
0.006747 0.025206 -0.004703
-0.008423 0.032304 -0.002301
-0.007656 -0.054108 0.003004
0.000695 -0.027665 0.008434
-0.007409 -0.054876 -0.004457
0.001004 0.042860 0.007618
0.001537 0.017584 0.007818
0.005928 0.051326 0.005149
-0.000732 -0.046786 0.008506
0.002318 -0.053777 0.008775
0.004632 0.019888 -0.007000
-0.004216 0.038993 -0.007860
-0.001266 -0.042436 0.008374
0.007250 -0.028678 0.005699
-0.006959 0.050749 -0.007232
0.006125 -0.045809 0.006998
0.008759 -0.051027 0.004691
0.006509 0.036811 -0.003109
0.005883 -0.015918 0.006476
-0.000114 0.020355 -0.008998
-0.008418 -0.032027 0.000192
0.010083 -0.048379 -0.001282
-0.002174 -0.052814 -0.009209
-0.006792 0.039102 -0.006085
-0.008223 -0.028948 0.001024
0.008955 -0.037886 0.003185
0.000979 0.013332 -0.008914
-0.008938 0.013023 0.001254
0.007682 0.024093 -0.002428
0.005136 -0.055711 -0.008844
0.005051 0.024157 -0.006825
0.001824 -0.002750 -0.009009
0.004077 0.040931 -0.007164
-0.006665 0.054922 0.006998
0.003309 -0.037410 -0.009155
-0.003118 -0.056320 0.004708
0.007033 0.019958 0.004088
-0.005766 0.021242 0.006220
0.004470 0.042571 -0.006860
0.005697 0.044703 -0.005923
-0.003829 -0.004442 0.007418
-0.001184 -0.038385 -0.009383
0.003321 -0.002843 0.007629
0.002442 0.032690 0.006614
-0.010132 0.052028 -0.001123
0.008552 -0.044280 -0.005409
0.005522 -0.030282 0.007150
0.001442 -0.018094 0.008248
-0.002581 0.010492 0.007768
0.008866 -0.003846 -0.000791
-0.006896 -0.052067 -0.005451
0.001642 0.003225 -0.008951
0.000304 0.013509 -0.009044
0.001188 -0.039841 0.008561
0.000912 0.039113 -0.008289
-0.008454 0.049977 -0.005642
-0.007422 0.024004 0.004583
-0.007596 0.025678 -0.005353
-0.007535 0.029415 0.004467
0.004703 -0.003782 0.007069
-0.006477 -0.015086 0.004491
-0.005429 -0.036229 -0.007310
0.002331 -0.014049 -0.009051
-0.001551 0.003406 0.008005
-0.002933 -0.007766 0.007714
