0.069272 -0.036815 0.029876
-0.026626 0.017248 -0.022327
0.060487 0.022178 0.000840
0.054598 -0.004435 -0.013238
0.032152 0.060609 0.008819
-0.037520 -0.004088 -0.023833
0.023574 0.004927 -0.023280
0.008019 0.015394 -0.022340
0.045627 0.038833 -0.006187
-0.040451 0.054442 0.009509
0.064833 -0.037554 0.028464
0.018855 0.022235 -0.022814
-0.021815 0.058164 -0.003596
0.008557 0.061259 -0.002265
-0.007640 -0.024586 -0.022377
-0.032031 -0.022740 -0.023324
-0.011069 0.058903 -0.005236
0.012210 0.042010 -0.023050
0.027620 -0.020573 -0.023146
0.037746 -0.055393 0.004561
0.045883 0.047355 0.004404
-0.057840 0.044188 0.024829
0.009688 0.053007 -0.014624
0.007221 0.038441 -0.024153
-0.042126 0.045088 -0.002784
0.000259 -0.048835 -0.019301
-0.007866 -0.069014 0.010740
0.068266 0.017087 0.014563
-0.068556 -0.023947 0.024313
-0.058360 -0.004039 -0.009738
0.003393 0.069761 0.016179
0.042001 0.013891 -0.024074
-0.017938 0.065258 0.009795
0.026772 0.064992 0.017325
-0.028620 0.040591 -0.017024
0.055998 -0.038049 0.006454
-0.015958 0.048786 -0.016557
-0.023131 0.036302 -0.023093
0.042725 -0.034923 -0.013305
-0.012931 -0.004291 -0.021869
-0.077430 -0.012597 0.029541
0.042047 0.012303 -0.023285
0.036457 -0.062006 0.017913
0.048255 0.036224 -0.005514
-0.009480 -0.072695 0.019953
-0.057786 0.043877 0.026315
-0.031857 -0.060626 0.009340
0.032379 0.056382 0.002757
0.021919 0.003716 -0.022368
-0.061656 0.046010 0.026680
0.072919 0.003863 0.022487
-0.074394 0.005597 0.026908
-0.030791 0.041922 -0.016273
0.024385 0.050421 -0.010869
-0.020206 0.048432 -0.015620
-0.042065 -0.061654 0.026763
-0.030103 0.050625 -0.006665
-0.049565 0.026239 -0.012169
-0.059747 0.039940 0.020057
-0.067063 0.021664 0.016700
-0.031182 0.050865 -0.005544
-0.018996 0.011940 -0.022084
0.066046 -0.002844 0.003282
0.051567 -0.002635 -0.016464
0.036180 -0.064147 0.021992
0.045701 -0.047972 0.000744
0.011758 0.064856 0.005403
-0.048733 -0.036589 -0.007099
-0.051043 -0.030749 -0.008702
-0.001536 0.033455 -0.022919
-0.076110 0.023397 0.027227
0.031681 -0.058937 0.004748
-0.042810 0.051444 0.005415
-0.050304 0.020710 -0.013910
0.056578 0.041917 0.015796
-0.039829 -0.028615 -0.019842
0.057842 -0.043283 0.021332
-0.043842 0.026142 -0.016276
0.064431 -0.042799 0.028087
-0.022042 0.064732 0.008729
-0.026800 -0.035204 -0.023153
-0.042168 -0.068444 0.029610
-0.035590 0.030751 -0.019685
0.077323 0.005384 0.029122
-0.059662 -0.003094 -0.006641
0.008452 0.000620 -0.022310
-0.013611 0.047833 -0.018194
-0.046703 -0.055979 0.024138
0.010945 -0.072206 0.018372
-0.001391 0.010806 -0.022227
0.014158 -0.069680 0.014950
-0.000767 -0.061760 -0.006676
0.020838 -0.013761 -0.022317
-0.064704 -0.011177 0.001412
0.040531 -0.059738 0.019830
0.070620 0.037515 0.026869
-0.066751 0.001500 0.005984
-0.044173 0.042577 -0.003162
0.061009 0.029743 0.007829
-0.077274 -0.021226 0.026654
0.055959 -0.057446 0.029591
-0.040598 -0.048438 -0.002087
-0.034568 0.043872 -0.010749
0.045127 0.019384 -0.018428
-0.016971 0.075755 0.025542
0.014881 -0.069943 0.012622
-0.000730 -0.035889 -0.022972
0.026216 -0.070378 0.028555
0.056282 -0.038118 0.004473
-0.076086 -0.020506 0.026356
0.005043 -0.051377 -0.016609
0.027933 -0.066424 0.019070
0.022252 0.005570 -0.023280
-0.057069 -0.025496 -0.004462
0.048302 -0.048270 0.007416
-0.067020 -0.019830 0.010462
0.055149 -0.025137 -0.006273
0.072292 0.013409 0.026675
0.009150 -0.052105 -0.016512
-0.067153 0.026998 0.021904
0.044286 0.013256 -0.022645
-0.004305 -0.003803 -0.022981
-0.002222 -0.029619 -0.022685
0.008448 -0.078881 0.030382
-0.066693 -0.042891 0.026578
0.017978 -0.073991 0.029489
-0.001430 0.009300 -0.022165
-0.075803 -0.014003 0.029333
0.033250 0.032685 -0.021858
0.070235 -0.015879 0.021656
-0.075916 0.023963 0.026947
0.068107 0.002377 0.007898
-0.017591 -0.063991 0.001276
-0.043475 0.052070 0.010077
0.060861 -0.039884 0.023625
0.057114 -0.038078 0.005930
0.029923 0.051722 -0.005866
-0.061124 0.018107 -0.001490
0.053296 -0.023367 -0.009496
0.054505 -0.056709 0.029869
0.044185 -0.024985 -0.018770
-0.024297 0.054837 -0.006913
-0.052447 0.023175 -0.009218
-0.015569 0.068054 0.017165
0.008205 0.006669 -0.022262
0.015955 -0.059670 -0.005047
0.006579 0.075936 0.028511
0.015846 0.020322 -0.022644
-0.067769 -0.002961 0.008134
-0.068792 0.006153 0.011487
0.005691 0.035551 -0.023083
0.065510 0.021852 0.008292
-0.037740 0.066503 0.028815
0.025942 -0.064657 0.010262
-0.007007 -0.049359 -0.019487
0.045109 0.044478 -0.002290
-0.004776 0.064393 0.001011
0.023917 -0.069738 0.027164
-0.029421 -0.066131 0.021758
0.043442 -0.056300 0.014867
-0.040698 -0.024268 -0.021495
-0.055973 0.044889 0.024254
-0.008628 0.033875 -0.023806
-0.072706 0.013647 0.026190
-0.028640 -0.061654 0.004809
0.061393 -0.002287 -0.004960
0.018091 -0.024725 -0.022549
0.066539 -0.007055 0.005143
-0.028771 -0.043489 -0.016230
-0.003799 0.075157 0.026907
-0.011610 0.056581 -0.009763
-0.039438 -0.024724 -0.022206
-0.036914 0.051705 -0.001326
0.054111 -0.032832 -0.002129
0.018990 -0.008092 -0.022338
-0.036732 0.057975 0.012443
-0.016578 -0.054545 -0.012462
-0.060411 0.030943 0.006953
-0.060948 0.035568 0.018735
0.007485 -0.064467 0.000182
0.049699 0.014792 -0.016094
0.035926 0.061086 0.015025
-0.075440 -0.028384 0.027552
-0.039024 0.019862 -0.023171
0.061138 -0.002835 -0.006632
-0.060854 -0.039485 0.018737
-0.013389 -0.030259 -0.023756
0.071871 0.000889 0.015865
-0.047087 0.049736 0.011549
0.011299 0.074081 0.027974
0.026887 -0.072629 0.028523
0.034317 0.033187 -0.019471
0.061306 -0.029422 0.007364
-0.074500 0.024744 0.029165
0.057514 0.023179 -0.003452
-0.058256 0.009702 -0.007269
0.011894 -0.039449 -0.024229
-0.044019 0.053799 0.014940
0.059779 0.039209 0.021695
0.068205 0.001325 0.005839
-0.077202 -0.022941 0.027419
0.025473 -0.028729 -0.024183
0.041133 0.057794 0.020222
0.004662 -0.069740 0.008355
-0.011837 0.023804 -0.022513
-0.039274 -0.025361 -0.020994
-0.037831 -0.069058 0.027750
0.068479 -0.015263 0.009674
-0.058270 -0.045169 0.024022
0.065904 0.027511 0.019974
-0.062491 -0.034228 0.016609
-0.065220 -0.013414 0.005368
0.069929 -0.005900 0.010079
0.051800 0.039785 0.002798
-0.049044 0.002712 -0.019456
0.007644 0.006364 -0.023028
-0.018468 0.016829 -0.022305
0.050476 -0.051595 0.021250
0.035340 0.007918 -0.022912
0.005593 0.078969 0.027203
0.036875 -0.032620 -0.018886
0.049422 0.030804 -0.008665
0.024657 0.068024 0.025790
0.053330 -0.041180 0.003240
0.046514 0.044943 0.002147
-0.044031 -0.021507 -0.018377
0.052880 -0.035321 -0.003805
-0.009349 0.041351 -0.024295
0.021152 0.020023 -0.022720
-0.025802 -0.076661 0.029347
-0.006914 0.015552 -0.022334
-0.019443 -0.041625 -0.023486
-0.011656 0.043160 -0.021756
-0.021186 -0.023419 -0.022672
0.041704 0.036856 -0.011426
-0.001433 0.071597 0.024057
0.001767 -0.050569 -0.018902
0.008969 0.071454 0.022861
-0.025071 -0.064717 0.010915
-0.018220 0.069640 0.023011
0.008112 -0.011206 -0.023177
0.044365 0.055943 0.022965
-0.050661 -0.031239 -0.008797
-0.046684 0.044781 0.000675
-0.074376 0.003493 0.027799
-0.029815 -0.018395 -0.023772
0.017055 -0.044861 -0.020216
-0.010318 -0.079566 0.027112
0.063566 0.018954 0.004542
-0.016053 0.040114 -0.024163
0.039878 -0.011061 -0.023365
0.037430 -0.068855 0.027994
-0.033228 -0.051053 -0.005993
0.027948 0.002136 -0.022426
0.001608 0.067456 0.006463
0.028690 0.007938 -0.023411
0.026932 -0.043148 -0.017348
-0.059719 -0.008640 -0.006167
0.040883 0.005550 -0.023440
-0.030998 0.029292 -0.023244
0.013911 0.067475 0.009821
-0.001746 0.051092 -0.015885
0.005141 -0.051750 -0.016160
0.015382 0.070159 0.021647
-0.069248 -0.005406 0.012396
0.074969 0.011591 0.027469
0.027698 -0.069334 0.028514
0.012235 -0.056751 -0.011449
-0.020821 0.042309 -0.020569
0.063345 -0.032917 0.016888
0.065095 -0.032604 0.018951
0.058302 -0.044310 0.020097
0.002650 0.009792 -0.023162
0.060609 -0.025195 0.002148
0.017025 0.059701 -0.002413
-0.043430 0.050494 0.007000
-0.025822 0.050250 -0.011237
-0.064318 -0.030239 0.016223
0.027916 0.062976 0.012120
0.061643 0.031053 0.010724
0.037189 0.033853 -0.018283
-0.003236 0.069202 0.011221
-0.043779 -0.059877 0.027866
0.001510 -0.013929 -0.022182
-0.008375 -0.079732 0.029994
0.071533 -0.009822 0.022062
0.065068 0.029215 0.019444
-0.044518 0.057587 0.026584
-0.019145 -0.066781 0.007675
0.061831 -0.036747 0.020261
-0.007992 -0.066460 0.004455
-0.038032 -0.048582 -0.004219
0.065181 -0.035996 0.025957
0.040839 -0.016541 -0.024280
0.040835 0.014854 -0.024313
0.031293 0.000161 -0.023597
-0.034846 0.026328 -0.023979
0.012531 0.063566 0.001302
0.068576 0.038225 0.028893
-0.001198 -0.057273 -0.012106
-0.025602 -0.063164 0.007085
0.012721 0.058258 -0.005773
-0.066870 -0.000459 0.006416
0.071044 0.010864 0.015976
0.009015 0.026444 -0.022822
-0.012360 -0.009286 -0.023079
0.031223 -0.023496 -0.023369
0.026208 0.054354 -0.006492
-0.057315 0.043739 0.025644
-0.012355 -0.079676 0.027176
0.032496 -0.033804 -0.022870
-0.002368 -0.029321 -0.022740
0.070310 -0.005478 0.014113
-0.063193 -0.038824 0.025977
-0.014653 -0.067768 0.007533
0.020054 0.058443 -0.004589
-0.073264 -0.002119 0.026215
-0.063200 -0.032197 0.015922
0.056474 0.029991 -0.001947
0.044617 0.013252 -0.022394
-0.005657 0.010496 -0.022220
-0.065926 0.044211 0.026885
-0.056336 0.011098 -0.009242
-0.053201 0.044803 0.014268
-0.006306 -0.029188 -0.022595
0.038234 0.025205 -0.022637
0.045221 -0.053388 0.011078
0.022275 0.068374 0.024782
-0.068293 0.023514 0.025191
0.057859 0.019211 -0.005183
0.040939 -0.055708 0.009085
-0.022659 -0.010975 -0.022426
0.025247 0.049696 -0.011127
0.021483 -0.009211 -0.022525
0.028058 -0.053560 -0.006980
0.066708 -0.035673 0.027553
-0.007249 0.035799 -0.023026
-0.038473 -0.008373 -0.023012
0.077315 0.008137 0.029288
0.008288 -0.017098 -0.022249
0.007999 -0.069258 0.010648
-0.054812 0.037052 0.003610
-0.010227 0.004431 -0.023005
-0.065005 -0.040169 0.029307
0.059609 -0.038282 0.014436
0.022669 -0.054376 -0.010595
-0.035655 -0.063214 0.017535
0.022784 -0.066026 0.010547
0.019894 0.057160 -0.004965
0.010640 -0.072331 0.024233
-0.016394 -0.013274 -0.022344
-0.000307 -0.069959 0.012438
0.072341 0.004552 0.024924
-0.049264 0.004928 -0.017744
0.009396 0.069341 0.017150
0.050232 0.020504 -0.013569
0.003339 0.010710 -0.022229
0.076996 0.011289 0.027480
0.039413 0.050135 -0.001200
0.004773 -0.080193 0.027006
0.041338 0.015082 -0.024199
0.064097 0.047694 0.026999
0.072926 -0.012559 0.027436
0.008513 0.054381 -0.011716
0.070752 -0.014469 0.023831
-0.041887 0.040375 -0.009418
-0.059623 0.005954 -0.007620
-0.029491 -0.066498 0.018021
-0.063133 -0.036356 0.024494
0.027540 0.074267 0.027787
0.000133 0.014021 -0.023354
-0.038966 -0.055394 0.004396
-0.023836 -0.064260 0.007615
-0.005100 -0.070612 0.016557
-0.032945 0.027172 -0.024217
-0.000067 -0.028740 -0.022646
0.057355 0.041172 0.016868
-0.004615 0.034672 -0.022962
0.058179 0.044009 0.024445
-0.025257 -0.043769 -0.017697
-0.070868 -0.012894 0.023653
0.006109 -0.027825 -0.023583
-0.039080 -0.070180 0.029540
-0.001182 -0.048532 -0.019375
-0.063755 0.024328 0.007603
0.042385 -0.058935 0.023011
0.014981 -0.031391 -0.023981
0.002580 0.037758 -0.023113
0.072373 -0.004931 0.024271
0.055467 -0.002669 -0.013833
-0.032790 -0.011822 -0.022808
-0.060278 0.025720 0.003670
0.078487 0.007387 0.026483
0.048093 0.024137 -0.015089
-0.064439 0.029743 0.015494
-0.001769 0.002901 -0.022060
-0.068391 0.022619 0.024424
-0.044377 -0.042813 -0.004313
-0.025928 -0.052935 -0.008737
-0.007447 0.038295 -0.024104
0.039979 -0.034994 -0.015045
-0.020312 0.068462 0.024106
0.011297 -0.051594 -0.015567
-0.013302 0.032116 -0.023725
-0.015840 -0.026098 -0.022595
0.038299 0.023377 -0.022675
0.044315 -0.012905 -0.022030
-0.070055 -0.019034 0.024214
-0.030397 0.067422 0.026669
-0.063797 0.021314 0.007267
-0.057075 0.003788 -0.010076
0.015324 -0.042381 -0.023056
-0.063892 -0.015533 0.003880
0.074869 -0.012773 0.029013
-0.047044 -0.057099 0.027306
0.026701 0.062994 0.010475
-0.075107 0.013152 0.027563
-0.060647 0.005158 -0.004607
0.001319 -0.007431 -0.021938
-0.066905 0.030275 0.025698
0.063276 -0.006215 -0.003319
-0.007979 -0.038276 -0.023088
0.017492 -0.049631 -0.017160
0.066009 -0.025785 0.011696
0.051480 0.042599 0.004184
-0.006685 0.049067 -0.018387
-0.025992 -0.069570 0.027869
0.002186 -0.053409 -0.015965
-0.062587 -0.009802 -0.002687
0.042487 0.050937 0.005879
0.032406 0.050540 -0.007422
0.028996 -0.038411 -0.021446
0.042025 0.007069 -0.023476
0.069457 0.005339 0.012552
0.062233 0.026693 0.007609
0.008103 0.074728 0.026753
-0.031807 0.059981 0.007658
-0.073143 0.026395 0.026195
0.060969 0.018391 -0.002656
0.013443 0.055009 -0.011101
-0.022247 0.057688 -0.003972
-0.008063 0.078174 0.025889
0.020631 0.021884 -0.022846
-0.076110 -0.022765 0.026224
-0.064172 -0.025717 0.008362
0.032879 0.034907 -0.020421
0.001082 -0.066280 0.003069
0.054043 0.023248 -0.009411
-0.032176 -0.052029 -0.005701
-0.013328 0.051137 -0.015372
-0.027450 0.063921 0.012260
0.047923 0.048532 0.009657
0.074774 0.025273 0.026481
-0.016961 -0.016307 -0.022396
0.012342 0.036311 -0.024087
-0.038474 0.035767 -0.014619
0.032624 0.071931 0.027982
-0.053556 0.041786 0.010161
-0.012073 -0.071661 0.022242
-0.023668 -0.051009 -0.012066
0.009902 -0.041129 -0.024345
-0.074222 -0.027576 0.026270
0.057026 0.018679 -0.006606
0.055913 0.016247 -0.010204
-0.006158 -0.044869 -0.023908
-0.064777 0.024271 0.012460
0.043483 -0.058277 0.016847
-0.066691 -0.009666 0.006730
-0.054408 -0.028540 -0.005975
-0.070369 0.003248 0.012926
-0.039394 -0.057432 0.011984
0.021188 0.072902 0.026772
0.040974 -0.053425 0.003100
0.061329 0.021272 0.001583
-0.022447 0.054462 -0.006804
0.049733 -0.064555 0.027377
-0.010623 -0.050351 -0.018009
-0.030866 0.045671 -0.012846
0.016858 0.061937 0.001593
-0.027458 0.029082 -0.023251
-0.070479 0.029093 0.028984
0.046851 -0.050481 0.006183
-0.016896 0.014787 -0.022236
0.005125 -0.024196 -0.022494
-0.056145 -0.004603 -0.011016
0.049398 0.042489 0.000876
0.047458 -0.059500 0.028089
-0.048029 0.034669 -0.006725
0.026670 0.035378 -0.023821
-0.008346 0.061961 -0.000981
-0.039497 -0.030913 -0.017801
0.008239 0.064156 0.003210
-0.044996 -0.016175 -0.019694
-0.003498 0.025048 -0.022571
0.016119 -0.014443 -0.022471
-0.025560 -0.046540 -0.015175
-0.018922 0.046043 -0.016909
-0.024894 -0.071545 0.029068
0.041622 0.043941 -0.006760
0.010733 -0.003293 -0.023157
0.007356 0.056188 -0.009746
0.004825 0.033505 -0.022886
0.058680 -0.026199 -0.000315
0.008067 -0.077800 0.028077
0.046142 0.054244 0.021847
0.022007 0.057490 -0.003251
0.039589 0.052367 0.002449
0.060795 -0.006687 -0.006990
0.005427 0.069595 0.016625
0.038614 0.013565 -0.023395
0.029600 -0.066944 0.019187
0.076045 -0.016644 0.027631
-0.049095 0.010057 -0.016990
-0.038708 0.058170 0.013058
-0.032172 0.057404 0.005417
-0.051416 0.033098 -0.005537
0.001409 -0.049572 -0.018699
-0.001630 -0.001371 -0.022083
-0.041637 -0.050904 0.000727
-0.019059 0.076678 0.027542
0.003757 0.048404 -0.017914
-0.030026 0.030780 -0.024120
-0.012246 -0.062917 -0.001272
-0.054652 0.035904 0.002093
-0.073329 -0.032552 0.028669
0.042945 -0.047970 -0.000192
-0.038090 -0.011086 -0.023240
0.067584 0.021633 0.017246
0.040237 -0.064236 0.027882
0.053643 -0.046330 0.014320
0.047954 0.057749 0.026906
-0.037566 0.053492 0.002442
0.017965 -0.034446 -0.024241
-0.022954 0.003580 -0.022210
0.054622 -0.047039 0.020327
-0.034925 -0.033436 -0.019482
-0.044681 -0.021278 -0.018069
0.042688 0.019397 -0.021859
-0.001927 -0.066141 0.003536
0.020072 -0.048569 -0.015841
-0.071651 0.034754 0.027581
-0.056479 -0.009902 -0.009698
-0.077301 -0.019655 0.029115
-0.058091 0.007079 -0.008108
0.041769 0.066906 0.025628
-0.060161 0.044006 0.028078
-0.037382 0.062713 0.025570
0.017850 0.062683 0.003493
0.059834 0.025593 0.001940
0.006089 0.044167 -0.022141
0.062777 -0.048813 0.029788
-0.010649 -0.063867 0.000150
-0.073744 -0.029878 0.026412
-0.030747 -0.026265 -0.023089
0.042024 0.054761 0.012630
0.038017 0.034975 -0.015718
0.062221 -0.037494 0.023149
-0.030431 -0.017618 -0.023021
-0.043347 -0.015692 -0.022796
0.077969 -0.021520 0.027216
-0.036823 0.043772 -0.010444
0.050572 -0.028591 -0.009685
-0.007879 0.047652 -0.019457
0.000641 0.031864 -0.023764
-0.035501 0.059049 0.013159
0.056418 -0.050347 0.028898
-0.068818 -0.039829 0.026539
-0.019566 0.046135 -0.016726
0.036426 -0.056761 0.003054
-0.068188 -0.009142 0.010840
-0.026475 0.055462 -0.002738
0.006452 0.006902 -0.022219
-0.050331 -0.047761 0.008196
0.041711 -0.044283 -0.006292
-0.026975 0.018597 -0.022703
-0.071251 -0.021063 0.026246
-0.072930 -0.015407 0.028063
0.033581 -0.004356 -0.022914
0.048714 -0.035169 -0.007184
0.061220 0.036850 0.021205
-0.031769 -0.064569 0.014815
0.019473 0.069419 0.023231
0.021461 -0.071393 0.026010
0.073254 -0.004386 0.023822
-0.006885 0.036630 -0.023208
0.026223 -0.035596 -0.023358
-0.022160 -0.070438 0.023270
0.016774 -0.071801 0.026589
-0.017198 0.029966 -0.022866
0.046946 0.025577 -0.014171
-0.044027 0.056321 0.025206
0.049823 -0.033533 -0.007326
-0.031647 0.056440 0.003085
-0.002039 -0.011033 -0.021998
-0.078106 0.009978 0.029303
-0.050649 0.014771 -0.015626
-0.037656 -0.048383 -0.004528
0.034901 -0.050271 -0.005523
0.004250 -0.068518 0.005768
-0.055094 0.027633 -0.005134
-0.013775 0.022208 -0.022369
0.061242 0.010700 -0.005266
0.055612 -0.022028 -0.007482
0.025686 -0.024191 -0.023143
-0.059310 0.028622 0.002711
-0.009268 -0.056514 -0.011005
-0.049848 0.023531 -0.012077
-0.022722 0.007173 -0.022061
-0.025580 0.023124 -0.023552
0.026610 -0.076395 0.029180
0.061161 0.035852 0.014164
-0.042657 0.059493 0.027124
-0.069041 -0.016283 0.017751
0.025853 -0.012175 -0.023012
0.024764 0.054395 -0.005886
-0.041065 -0.001541 -0.023346
0.009791 0.035138 -0.023968
0.037183 0.059919 0.018392
-0.005596 -0.066364 0.001537
-0.014980 0.068095 0.016970
0.053522 0.046853 0.016498
0.060442 0.040155 0.025548
-0.023495 0.057393 -0.003663
-0.007739 0.068442 0.010596
-0.034467 -0.072144 0.029869
0.054407 0.028725 -0.005649
-0.002329 0.038539 -0.023226
-0.055309 -0.019338 -0.008476
-0.052996 -0.004959 -0.014487
-0.017499 -0.048957 -0.016236
0.064057 -0.030886 0.015811
-0.043738 0.039502 -0.006678
-0.008682 -0.038947 -0.023098
0.030281 0.062985 0.012639
0.048980 0.061050 0.025437
-0.023570 0.061818 0.006064
0.017692 -0.075376 0.030124
-0.017685 0.076686 0.027908
-0.069638 0.014486 0.015358
0.035656 0.061823 0.017668
-0.002099 -0.072256 0.020821
0.077364 0.018933 0.026489
-0.008195 -0.063307 -0.003236
-0.009120 0.045419 -0.020305
-0.040673 0.045135 -0.005992
0.063853 -0.049847 0.027927
0.013811 -0.041942 -0.024251
-0.019194 0.001983 -0.022954
0.014804 0.056116 -0.008303
-0.072176 -0.033233 0.026314
-0.044872 -0.009253 -0.021972
0.069035 -0.036394 0.027572
-0.032937 -0.024280 -0.023330
0.052748 -0.030668 -0.005876
-0.009595 0.047153 -0.018596
-0.043142 -0.044327 -0.004370
-0.000905 0.035772 -0.023932
-0.033355 -0.059290 0.007930
-0.003777 0.009134 -0.022174
0.013554 -0.009901 -0.022246
0.046348 0.054149 0.020124
-0.067671 0.011411 0.008162
-0.051942 -0.008166 -0.016051
0.006166 0.061053 -0.003093
-0.071357 -0.008971 0.022106
0.013936 -0.071239 0.021227
0.010844 -0.076476 0.028363
-0.057963 0.043477 0.023691
0.004437 0.079139 0.026940
0.018896 0.046062 -0.018200
0.073135 -0.013466 0.028016
0.014945 -0.069396 0.010706
-0.059890 0.042573 0.027150
0.038120 -0.060348 0.015632
0.037723 0.048989 -0.002791
-0.016690 -0.004803 -0.021946
-0.012577 0.002588 -0.021999
0.041280 0.055989 0.011124
-0.028200 0.058409 0.003483
0.048874 0.009166 -0.017879
-0.073484 0.013573 0.028116
-0.010745 -0.019246 -0.023266
-0.047072 0.029251 -0.011347
-0.065914 -0.046512 0.028776
0.042033 -0.058008 0.017918
0.077630 0.016684 0.026414
0.006358 0.069774 0.017302
0.058688 0.024289 -0.000980
-0.060432 0.040473 0.024457
-0.002777 -0.031686 -0.023675
0.026428 0.065881 0.020955
0.015741 -0.057352 -0.008066
-0.019601 -0.065967 0.008971
-0.020885 -0.055458 -0.009770
0.045910 0.052695 0.011579
0.016862 -0.070795 0.022690
-0.049074 0.017549 -0.015060
0.044834 0.009456 -0.021907
0.038516 -0.058103 0.010808
0.030465 -0.035956 -0.021256
-0.029047 0.055783 -0.002073
0.015415 0.050436 -0.015620
-0.063532 0.040175 0.027269
0.008053 -0.031156 -0.022865
0.059533 0.030588 0.003933
0.065989 -0.029472 0.016206
-0.031478 -0.048821 -0.010853
0.064894 -0.012852 0.003482
-0.071124 0.011071 0.019201
-0.063750 0.004207 -0.001779
0.056358 -0.018132 -0.008344
-0.009708 -0.078429 0.030346
0.055791 -0.000838 -0.012233
0.010441 -0.053736 -0.014837
0.012624 -0.072822 0.023440
-0.060593 -0.002985 -0.006895
-0.002578 -0.066334 0.003904
0.044573 0.050833 0.005874
0.041208 0.047174 -0.003643
-0.056225 -0.045237 0.016913
-0.010234 -0.064493 -0.000877
0.071028 -0.016416 0.020544
0.035959 0.058560 0.011031
-0.071950 -0.001741 0.018502
-0.009479 0.067109 0.009551
-0.054126 0.027895 -0.006090
0.051463 0.014690 -0.014476
-0.074841 -0.014018 0.028973
-0.037117 0.039898 -0.012469
-0.012797 0.020545 -0.023347
0.062182 0.025813 0.006433
-0.039525 0.051227 0.003517
0.006573 0.002453 -0.022172
0.026313 -0.076853 0.028292
-0.055727 0.027988 -0.003642
0.043403 0.056668 0.022549
0.039623 -0.055065 0.006686
-0.067719 0.014096 0.009625
0.079690 0.011350 0.027756
-0.010943 -0.013343 -0.022235
-0.010923 -0.043471 -0.022930
0.060320 -0.024924 0.001615
0.075472 -0.003569 0.027430
0.068925 0.025266 0.026587
0.061635 -0.042016 0.028075
-0.029523 -0.047448 -0.013370
0.071833 -0.013399 0.021470
0.011615 0.048549 -0.017069
0.022523 -0.005531 -0.022433
0.005495 0.053760 -0.012794
0.062350 0.019587 0.002215
0.042479 -0.060543 0.023573
0.019155 0.052835 -0.010719
0.063428 0.026065 0.009219
-0.022937 -0.038691 -0.023946
0.040545 0.052956 0.006294
0.050054 -0.051876 0.019953
-0.021549 -0.023954 -0.023665
0.044164 -0.057480 0.015750
-0.032080 0.061310 0.013913
0.068853 0.022171 0.023612
-0.030147 0.021629 -0.022897
-0.008110 0.073203 0.027297
0.045696 0.034525 -0.010936
-0.023615 0.070316 0.026690
-0.058343 -0.006373 -0.007849
0.004674 -0.033933 -0.022840
0.033515 0.057632 0.006300
-0.028533 0.057583 0.000110
-0.017725 0.026332 -0.023513
0.055670 0.041183 0.011764
0.023560 0.053582 -0.007695
-0.001459 0.055906 -0.010657
-0.054777 -0.054827 0.028274
0.025311 0.068612 0.026795
-0.008266 0.024337 -0.022658
-0.003228 0.023721 -0.023483
0.029790 -0.074170 0.026882
0.004766 0.067530 0.009518
-0.049298 -0.048207 0.010122
0.005482 -0.057176 -0.010697
0.019176 0.055786 -0.006899
0.005210 0.074246 0.027728
-0.079113 0.003462 0.029141
0.025287 -0.010769 -0.022755
0.068252 -0.014297 0.011267
-0.025616 -0.035708 -0.023091
0.035022 0.066787 0.026798
-0.031017 -0.065902 0.024204
0.047614 0.052460 0.019052
-0.016732 -0.071222 0.025388
0.071652 0.025783 0.028821
-0.069847 -0.016773 0.020673
0.074798 -0.028972 0.026286
0.011360 0.012462 -0.022540
-0.054547 0.033703 0.001349
0.064039 -0.016496 0.002906
0.002987 0.020972 -0.023498
-0.002313 -0.058768 -0.010355
-0.046368 0.059353 0.027397
0.067777 -0.018546 0.013064
-0.065212 0.042315 0.026074
-0.063845 0.016702 0.002655
0.058449 -0.017318 -0.005792
-0.035396 -0.028186 -0.022400
-0.026547 0.018611 -0.022683
0.014539 -0.043773 -0.022198
0.077559 -0.004028 0.027566
0.077710 0.018816 0.026623
0.036332 0.043598 -0.010073
0.040110 0.030994 -0.017904
-0.061189 0.017007 -0.000127
-0.004565 -0.069546 0.011624
-0.054268 -0.047878 0.017357
-0.048239 -0.009731 -0.018321
0.010147 -0.004935 -0.023122
0.014132 -0.071868 0.026239
-0.062703 -0.043028 0.027829
0.004674 0.056316 -0.010047
-0.000621 -0.061578 -0.005247
0.046355 0.055699 0.025267
-0.054320 -0.057202 0.029964
-0.048784 -0.050824 0.014076
-0.042105 -0.003603 -0.023472
0.048793 0.051225 0.014343
0.042051 -0.059689 0.024428
0.015084 -0.063373 -0.001285
0.034238 0.060357 0.010559
0.027871 -0.019508 -0.023142
-0.007541 0.058457 -0.006626
0.050132 -0.019937 -0.014331
-0.010327 0.015891 -0.022286
0.007792 -0.034073 -0.023867
0.026298 -0.013022 -0.023688
0.027283 0.044817 -0.014638
0.040917 -0.056609 0.010980
0.059800 0.012032 -0.006858
0.054829 0.056946 0.025743
0.003200 0.070806 0.021049
-0.031131 0.065164 0.023882
-0.041214 -0.010899 -0.024247
-0.017208 -0.069183 0.012335
0.010212 -0.073644 0.027935
0.061278 0.029287 0.005762
0.046587 0.041459 -0.004110
-0.063493 -0.038830 0.026407
-0.020861 -0.038381 -0.023432
0.026982 0.065437 0.015689
0.034690 0.055835 0.004369
0.025012 0.074639 0.025625
0.014079 0.067610 0.010207
-0.013610 0.037067 -0.024115
-0.053719 0.041399 0.007063
0.030581 0.041819 -0.015366
-0.008349 0.032161 -0.022952
-0.023452 0.043715 -0.017135
-0.026077 -0.068021 0.024225
-0.046456 0.043260 0.000670
-0.060572 0.028821 0.005375
0.050603 0.009490 -0.017443
-0.072436 -0.002579 0.020528
-0.032050 0.021761 -0.023077
-0.025355 -0.050729 -0.012686
0.053973 -0.035020 -0.002422
-0.059476 0.000217 -0.007063
0.015201 -0.053366 -0.012695
0.058325 0.029572 0.000713
-0.073200 -0.000830 0.023990
0.059727 -0.010640 -0.006118
-0.025772 -0.059653 0.000679
0.010828 -0.052078 -0.015293
0.021564 0.029916 -0.023072
0.007028 -0.064801 -0.001343
-0.024178 -0.065754 0.011830
-0.060555 0.036475 0.019068
-0.016253 0.076527 0.025559
-0.045459 -0.057734 0.022083
0.069169 0.016033 0.017149
-0.064979 0.022445 0.010735
0.030115 0.050690 -0.007327
0.028176 -0.023564 -0.024098
0.015029 0.074334 0.026711
0.030700 -0.064513 0.016346
0.016210 0.042679 -0.021357
-0.072162 0.000028 0.019373
-0.056273 0.027207 -0.003720
-0.045109 -0.028327 -0.014747
-0.047472 -0.001218 -0.020932
0.026962 0.055906 -0.004104
0.032001 -0.050835 -0.009043
0.045170 0.047217 0.001324
-0.029919 -0.035807 -0.021200
0.066940 -0.016697 0.009410
-0.074522 -0.010163 0.027350
-0.017378 -0.047013 -0.018945
0.020554 -0.069505 0.015566
-0.028458 -0.048214 -0.011774
0.000865 0.058403 -0.009114
0.063452 -0.002874 -0.003044
0.031122 -0.026924 -0.023423
-0.035619 -0.057175 0.005554
0.028358 -0.034303 -0.023040
-0.051641 0.059345 0.028681
-0.051443 0.040620 0.004570
0.009441 -0.045035 -0.023355
-0.052777 -0.017247 -0.012387
-0.070657 0.014201 0.023915
-0.025219 0.000933 -0.022427
0.057278 -0.007351 -0.010198
-0.077544 0.013182 0.029211
-0.052011 -0.046070 0.008523
-0.002852 -0.065581 0.001903
-0.044944 0.048769 0.005959
-0.044226 -0.067788 0.027543
-0.056999 -0.015134 -0.007684
-0.040379 -0.043680 -0.007763
-0.043701 -0.012967 -0.023204
-0.025725 0.050226 -0.009864
0.056498 -0.022784 -0.005886
-0.055716 -0.028862 -0.002587
0.019211 0.020732 -0.022881
-0.044199 -0.028513 -0.016494
-0.003633 0.071900 0.025608
0.004240 0.047359 -0.020129
-0.052203 0.049881 0.025139
-0.020855 0.018163 -0.022390
0.054010 0.010012 -0.013170
0.054567 -0.049151 0.027126
-0.002908 -0.077236 0.029880
0.029052 0.063006 0.013282
0.033014 0.042691 -0.013167
-0.015075 0.001737 -0.022049
0.044193 -0.031949 -0.015048
-0.017604 -0.015092 -0.023239
0.045031 -0.053052 0.007709
-0.044573 -0.049667 0.004458
0.026394 -0.055100 -0.007574
-0.065512 -0.004413 0.001590
0.046309 0.033581 -0.011085
0.057560 -0.022957 -0.004590
-0.023830 -0.059483 -0.000970
0.030811 0.042806 -0.015799
-0.015690 -0.034908 -0.024103
-0.025910 0.069495 0.027941
-0.029875 0.051463 -0.007603
-0.058669 -0.030394 0.004124
-0.021158 -0.004294 -0.022192
0.035004 0.033107 -0.019004
-0.072520 -0.031404 0.029581
0.018870 -0.000541 -0.023253
-0.077232 0.003719 0.029231
0.061842 0.005130 -0.005415
-0.032101 0.032866 -0.022052
0.063685 0.037846 0.027426
0.035810 -0.019057 -0.023535
-0.055571 0.038833 0.006969
0.037645 0.050480 -0.001166
-0.063813 0.046413 0.026383
-0.063062 -0.020567 0.002639
-0.027681 -0.052115 -0.009760
-0.000437 0.065533 0.004858
-0.042774 0.010578 -0.022955
0.006326 -0.005207 -0.021986
0.028752 0.069997 0.028231
-0.017091 -0.065237 0.005492
-0.002934 -0.074336 0.025727
-0.008944 -0.050093 -0.018386
-0.065724 0.001133 0.004067
0.004950 0.067440 0.008894
-0.058475 0.009542 -0.008334
0.050554 -0.016526 -0.015243
0.070036 0.006206 0.014115
0.004568 0.069199 0.015048
-0.040729 0.049237 -0.000613
0.002326 0.059159 -0.006541
0.002089 -0.007072 -0.021973
0.044414 -0.007988 -0.022859
-0.009292 0.026965 -0.022502
-0.070185 -0.037287 0.029560
0.055908 -0.044486 0.016804
0.071874 0.026407 0.028992
0.031289 -0.031883 -0.024127
-0.068683 -0.033902 0.029325
-0.062267 -0.022473 0.002154
-0.011918 0.059177 -0.006292
0.009265 -0.062973 -0.001793
0.059267 0.031172 0.004014
-0.014564 -0.033628 -0.023048
0.076698 0.022297 0.028440
-0.008527 -0.007208 -0.023015
0.024058 0.031172 -0.023413
0.042821 0.015090 -0.023454
-0.067024 0.028997 0.026527
-0.014891 0.009913 -0.023035
0.006819 -0.058241 -0.010748
0.029997 -0.035912 -0.021643
-0.044537 0.011414 -0.021343
-0.012696 0.038369 -0.024244
-0.026683 0.036190 -0.021822
0.057763 -0.035823 0.006778
0.010707 0.066050 0.005575
0.071721 -0.035074 0.029503
0.025059 0.026739 -0.023105
0.059803 -0.029944 0.004437
0.043850 0.055026 0.016739
0.040879 -0.014046 -0.023449
0.067703 -0.027604 0.020475
0.011524 -0.076966 0.028261
-0.006691 -0.043971 -0.023013
-0.014336 -0.056524 -0.009321
0.038741 -0.055931 0.006920
0.058145 0.043210 0.025451
0.067529 0.012698 0.006958
-0.028859 0.033000 -0.023844
-0.011358 -0.044765 -0.022139
0.040857 -0.062771 0.026729
-0.012345 -0.054883 -0.011758
-0.010072 0.051001 -0.016050
-0.017410 0.029117 -0.022844
0.059801 0.000927 -0.007190
-0.062872 0.014982 0.001826
0.061345 -0.040248 0.021364
-0.012521 -0.052352 -0.014408
-0.009648 -0.076706 0.028387
0.018027 0.073390 0.026772
0.063920 0.011821 -0.000260
-0.024328 -0.062995 0.006188
-0.053908 -0.049996 0.026449
0.074852 -0.019576 0.028061
0.077896 -0.012773 0.026591
-0.018787 -0.046778 -0.017848
-0.039580 0.059149 0.023082
-0.041899 -0.034285 -0.014127
0.055988 -0.051355 0.029099
-0.026894 0.053959 -0.004577
0.014446 -0.057333 -0.008537
0.029672 -0.064680 0.014885
-0.029540 -0.064599 0.016273
0.045149 0.062405 0.028652
-0.028623 -0.046841 -0.014484
0.054971 -0.040591 0.007522
0.037717 0.062460 0.026489
-0.025435 0.065823 0.015717
0.047951 0.033693 -0.009412
0.012424 -0.003134 -0.023208
0.041239 0.054840 0.010878
-0.053717 0.010880 -0.012667
0.051257 -0.045977 0.008849
-0.060095 -0.025485 0.000361
0.038015 -0.061048 0.018684
0.013986 -0.074915 0.028147
-0.011896 -0.052309 -0.015950
-0.042578 0.055891 0.018222
0.005019 0.043911 -0.023702
0.040137 -0.033204 -0.016234
-0.056313 0.052936 0.026475
-0.023238 -0.044640 -0.017727
-0.063966 -0.036432 0.026879
0.079322 0.012969 0.028213
0.068156 -0.011108 0.010163
-0.044118 -0.057863 0.018456
-0.000301 0.010164 -0.022204
-0.009232 0.066304 0.007869
-0.041304 -0.024963 -0.020541
0.003207 0.071428 0.020642
-0.001835 -0.074120 0.027654
0.012702 0.035047 -0.023211
0.066521 -0.026415 0.018116
-0.037463 -0.069461 0.030145
-0.030535 0.015279 -0.022557
-0.035406 -0.047367 -0.008160
0.009838 -0.055163 -0.013554
-0.053308 0.029650 -0.004060
-0.032112 0.034516 -0.020769
0.008344 -0.076115 0.028117
-0.022696 0.055327 -0.005696
0.021226 -0.056134 -0.008968
0.037838 0.033899 -0.017734
-0.065621 -0.018212 0.008544
0.012858 -0.048157 -0.019359
0.015340 0.020905 -0.023603
-0.039654 -0.011600 -0.023346
-0.043043 -0.037182 -0.012119
0.013047 0.062772 0.001815
0.071078 0.008885 0.020395
0.026395 0.053953 -0.005790
-0.065689 -0.047330 0.027357
-0.028474 -0.035634 -0.023496
-0.060614 0.039150 0.021553
-0.070271 0.026174 0.027198
-0.007943 0.026080 -0.023524
-0.013124 -0.017252 -0.023252
0.044572 0.032875 -0.012035
0.054485 0.046360 0.017288
0.079154 0.005591 0.026094
-0.064257 -0.033965 0.019506
-0.047182 0.060616 0.026685
-0.014686 0.059614 -0.004722
0.027903 0.025573 -0.023215
-0.055682 -0.036030 0.003818
0.043654 -0.029124 -0.017063
-0.047587 -0.045806 0.001456
0.032618 -0.037407 -0.018515
0.020475 0.060021 0.000160
0.075031 -0.030128 0.028149
0.016830 -0.008135 -0.022350
-0.030557 -0.023384 -0.023221
0.054453 0.058472 0.027117
0.041682 -0.067469 0.030205
-0.040577 -0.046710 -0.004140
0.056963 0.028897 0.000115
-0.058537 -0.048047 0.027772
-0.071084 -0.001689 0.014655
0.064400 0.047321 0.026792
-0.008635 -0.045371 -0.022264
0.052095 -0.036316 -0.001827
0.035317 -0.016835 -0.023180
0.029382 -0.063737 0.012090
0.042232 -0.002025 -0.023525
0.056002 -0.035109 0.000782
-0.061208 -0.019793 0.000438
-0.010529 -0.063819 -0.001821
0.008583 -0.076352 0.028270
-0.037482 0.037892 -0.015038
-0.007482 0.040624 -0.023516
0.037648 0.036745 -0.014990
-0.057894 -0.045924 0.025132
0.000116 0.021670 -0.023450
0.042610 -0.012566 -0.023115
-0.050018 0.051714 0.021557
-0.058340 -0.045647 0.025693
-0.040331 -0.011592 -0.024356
0.040652 -0.065667 0.029782
-0.005466 0.010991 -0.022245
0.024385 0.022974 -0.022877
-0.007839 0.059279 -0.005450
-0.006822 -0.079497 0.030141
-0.000462 0.030830 -0.022889
0.008334 -0.023107 -0.023489
0.069217 0.015875 0.013454
0.024949 0.075602 0.027039
-0.007978 -0.002363 -0.021936
0.060997 -0.014569 -0.002950
-0.040824 -0.026657 -0.018879
0.059483 -0.031408 0.005263
0.002184 0.024661 -0.022539
-0.053454 0.046681 0.021084
-0.016085 0.058821 -0.003540
-0.079468 -0.012145 0.027405
-0.002093 -0.073551 0.025785
-0.018276 0.068528 0.022916
-0.017278 -0.019846 -0.022307
-0.023397 -0.014436 -0.022460
-0.062464 -0.008121 -0.003438
0.018759 0.024450 -0.023775
0.013094 0.064180 0.004245
-0.043421 -0.064097 0.028388
0.051775 -0.050819 0.023064
0.012048 -0.043148 -0.024080
-0.009564 -0.073925 0.028208
-0.029739 -0.055473 -0.002437
0.077617 -0.022561 0.027495
-0.051807 -0.000431 -0.016963
0.019146 -0.037888 -0.023411
-0.026766 -0.073163 0.028387
0.068824 -0.000059 0.009206
-0.049314 0.012649 -0.016433
0.017847 -0.062281 -0.000250
-0.025568 0.044700 -0.016730
-0.014588 0.051845 -0.014249
0.034668 -0.041738 -0.014081
0.047450 0.014443 -0.019112
-0.035549 -0.011518 -0.023060
0.013525 -0.055983 -0.010394
-0.033808 -0.032177 -0.021258
-0.033074 0.039604 -0.015318
0.030088 -0.034777 -0.022188
-0.053014 -0.050852 0.022332
0.056445 -0.026263 -0.003823
0.018249 0.038761 -0.023469
-0.038572 0.041076 -0.010047
-0.019604 -0.062890 0.002157
-0.062245 -0.036735 0.017655
-0.023500 0.068859 0.026693
0.016659 -0.050275 -0.015490
-0.053992 0.029467 -0.002917
0.033294 -0.003706 -0.023740
0.063609 0.019140 0.002689
-0.012432 -0.017640 -0.022117
0.059183 0.003281 -0.007610
-0.060851 -0.036195 0.015925
0.035382 -0.040547 -0.014637
0.023448 -0.048513 -0.015899
0.051329 0.028976 -0.007851
-0.007068 -0.063720 -0.002810
0.074139 -0.002325 0.025904
-0.072227 -0.035504 0.026917
0.026468 0.018618 -0.022839
-0.063532 0.012297 0.001900
0.011271 0.068312 0.013696
-0.004478 -0.024105 -0.022509
0.037322 0.070318 0.027425
0.022306 0.011203 -0.023331
0.015131 0.057596 -0.006105
-0.059089 0.025600 0.001802
-0.048376 0.035181 -0.005763
-0.047512 -0.026486 -0.014763
-0.057488 0.040812 0.018580
-0.004296 0.076368 0.028663
-0.074177 0.012537 0.027214
-0.013354 0.075478 0.026320
-0.054583 0.044611 0.014457
0.080439 0.004949 0.027876
-0.030220 0.065943 0.024890
-0.070581 0.000515 0.013048
-0.006964 0.026189 -0.022660
0.026808 0.043876 -0.016811
-0.003558 -0.020631 -0.022402
-0.029546 0.060607 0.006682
0.001289 -0.010455 -0.023095
-0.036975 0.033975 -0.016885
0.016510 -0.000779 -0.022043
0.047341 0.054580 0.022193
-0.042106 -0.030702 -0.015920
0.016430 0.068484 0.018443
0.010000 -0.064490 0.000655
0.039953 0.048650 -0.001130
-0.033102 0.068622 0.026443
-0.044972 0.058139 0.026220
0.025962 -0.068768 0.026260
0.071657 0.005928 0.022180
-0.043804 -0.006206 -0.023984
-0.071081 -0.003880 0.017822
0.018570 0.068950 0.018926
-0.001879 -0.000671 -0.021951
-0.041296 -0.057923 0.016238
0.049688 0.052287 0.021538
-0.007296 -0.075996 0.029429
0.020246 0.049765 -0.013497
-0.063834 -0.042316 0.029334
0.031585 0.035710 -0.020492
-0.001200 -0.072336 0.015252
-0.023692 -0.060090 -0.000046
-0.036895 0.024099 -0.022883
0.050008 -0.015441 -0.017192
-0.054488 0.019654 -0.008402
-0.021552 -0.068691 0.020316
0.052432 0.052718 0.027745
0.000387 0.006983 -0.022195
-0.046229 -0.027316 -0.014026
0.030456 -0.009641 -0.023801
0.054922 -0.032761 -0.001286
0.040455 0.038773 -0.011128
-0.024628 0.000121 -0.022335
-0.062148 0.023604 0.003842
-0.018032 0.006384 -0.022978
-0.061753 0.032523 0.014709
0.059331 -0.036671 0.008427
0.019075 -0.066251 0.006660
0.014687 0.031905 -0.023111
0.008457 -0.026946 -0.022688
0.070721 0.003313 0.012371
-0.011642 0.078179 0.026812
-0.016227 -0.005133 -0.021994
0.028495 0.065864 0.024519
-0.047542 -0.049693 0.009233
-0.046251 0.033917 -0.008941
0.001526 0.071244 0.023606
0.036629 -0.036482 -0.016733
0.061757 0.008360 -0.003152
0.042146 0.031617 -0.014865
0.046474 -0.006051 -0.021107
-0.051159 -0.053338 0.027498
0.050227 -0.049405 0.015073
-0.064589 -0.010297 0.003503
-0.015026 0.067587 0.011253
-0.055609 -0.019144 -0.009562
-0.035861 -0.017972 -0.024173
-0.048506 0.010980 -0.018501
0.051929 -0.047096 0.009210
0.061802 -0.017034 -0.000487
-0.036415 0.050970 -0.002759
-0.022434 0.039234 -0.022573
-0.063221 -0.045464 0.027906
0.054485 -0.043617 0.010874
-0.014873 0.054727 -0.009582
0.013349 0.041598 -0.022978
-0.056006 -0.033863 0.002005
-0.045645 -0.059100 0.026693
0.063664 0.043954 0.028889
-0.006253 -0.070369 0.016099
-0.047856 -0.042928 -0.001987
-0.015675 -0.072440 0.024877
0.061049 -0.027805 0.004977
-0.051551 0.012566 -0.015438
0.062268 -0.022820 0.003378
0.064676 -0.046598 0.026573
-0.068944 0.013351 0.015564
-0.034928 -0.034571 -0.018905
-0.039962 0.057675 0.017475
-0.031855 -0.042330 -0.016234
0.069289 0.023066 0.025925
-0.037352 0.060792 0.019478
-0.042166 -0.004176 -0.024262
-0.001159 -0.047467 -0.020828
-0.052624 -0.048465 0.019340
-0.064699 0.012247 0.004340
0.018658 -0.008680 -0.023377
0.067636 -0.035742 0.028024
0.000793 0.069403 0.011594
0.003187 -0.043636 -0.023320
-0.030642 0.064040 0.022354
0.006225 -0.070562 0.014006
-0.037905 0.026727 -0.020640
-0.063067 -0.040520 0.028385
-0.028729 0.060705 0.008434
-0.038512 -0.008551 -0.024062
-0.030047 0.073071 0.027268
0.078733 0.008915 0.026214
-0.037978 0.018937 -0.024197
0.033868 0.063525 0.024597
-0.040914 0.067322 0.026289
0.028575 0.061774 0.009711
0.044486 -0.054050 0.011439
0.013977 0.025502 -0.023695
0.021630 -0.022301 -0.023799
0.051810 -0.016331 -0.013954
0.016227 0.020216 -0.022618
0.000288 -0.038620 -0.024170
0.042781 0.057102 0.017531
-0.009853 -0.051390 -0.015911
-0.029985 0.045226 -0.012647
-0.067487 0.007979 0.008995
-0.063128 0.014232 0.001753
0.027714 -0.057847 -0.002740
0.047093 0.064550 0.026469
0.059423 -0.054679 0.028932
-0.019606 0.024022 -0.022608
-0.049766 0.030150 -0.009654
0.031960 0.039927 -0.017522
0.048733 0.041808 0.000977
0.072684 0.016802 0.027834
0.013385 0.071714 0.025134
-0.062402 0.032099 0.016243
0.061207 0.000380 -0.006889
0.066407 -0.023603 0.013834
-0.060923 0.004977 -0.004400
0.041316 -0.034971 -0.015606
-0.039518 -0.039467 -0.012157
0.071261 -0.019634 0.027353
-0.057890 -0.038880 0.009358
0.016464 0.069214 0.018116
-0.031356 0.031085 -0.022564
-0.003848 0.015747 -0.022221
-0.008320 -0.052439 -0.016365
0.041745 -0.021009 -0.022834
-0.046498 -0.065477 0.029591
0.034813 0.044474 -0.011475
-0.051101 0.005587 -0.017330
-0.016602 0.019807 -0.022435
0.002359 -0.067525 0.003435
-0.028448 -0.061168 0.003793
-0.055741 0.004230 -0.011213
-0.055489 0.001728 -0.011878
-0.022466 -0.046455 -0.017698
0.068555 0.003199 0.008605
-0.030634 -0.064235 0.017060
-0.002691 0.003338 -0.023178
-0.004085 -0.065869 0.000573
0.054145 0.020758 -0.010491
-0.021929 -0.065155 0.008935
0.037733 0.014263 -0.023355
0.060463 -0.023934 0.001159
-0.022804 0.068163 0.025203
0.043875 0.049928 0.003542
-0.038143 -0.043581 -0.009859
0.001417 -0.071110 0.011516
0.005771 -0.050105 -0.018963
-0.056756 -0.040147 0.011319
0.039761 0.046901 -0.005096
-0.041573 -0.028567 -0.018341
0.049198 -0.055606 0.025649
0.005379 -0.062294 -0.004032
-0.034691 0.050377 -0.003594
-0.072649 0.009917 0.024865
0.053198 0.029434 -0.005312
0.036465 0.001278 -0.022825
0.024482 0.055719 -0.006056
0.052244 -0.020230 -0.013553
-0.014420 -0.040679 -0.024363
-0.051370 0.040268 0.001909
-0.004400 0.028538 -0.023634
0.007050 -0.067386 0.006467
0.055670 -0.040985 0.009149
-0.042865 -0.035835 -0.013320
-0.041499 -0.058305 0.013829
0.013915 -0.022666 -0.022671
0.043828 0.025134 -0.017160
-0.063637 0.030191 0.016753
0.046415 0.001998 -0.021501
-0.014844 0.022229 -0.022442
-0.004397 -0.080729 0.027335
0.062912 -0.032069 0.010641
-0.036693 0.068033 0.028923
0.040451 0.068513 0.026753
0.012624 -0.062917 -0.003116
0.012609 -0.040824 -0.024261
0.010684 -0.041580 -0.023159
-0.017948 -0.022952 -0.022691
0.068168 0.022017 0.020903
-0.018237 0.070768 0.026989
-0.075279 -0.027624 0.027010
0.026312 0.038493 -0.020196
-0.015822 0.077426 0.027292
-0.019455 0.031767 -0.023035
0.024401 0.011044 -0.022385
-0.003362 -0.029412 -0.022575
0.004729 0.036285 -0.023150
0.059786 0.043673 0.026235
0.079989 0.001031 0.026252
0.055032 -0.007420 -0.012326
0.041818 0.025221 -0.018736
-0.011833 -0.035008 -0.023092
-0.075310 -0.009425 0.028800
-0.071383 -0.035839 0.029204
0.007622 -0.037497 -0.023138
0.053836 -0.034533 -0.001163
-0.027143 0.056513 -0.002792
-0.049904 0.050683 0.017489
-0.018792 -0.020796 -0.022578
-0.015084 -0.006856 -0.023084
-0.025080 -0.057304 -0.005325
-0.045968 -0.002291 -0.022407
0.029044 -0.015315 -0.023863
-0.048102 0.048755 0.008774
-0.022826 0.030929 -0.023979
0.023447 0.051473 -0.010341
0.031964 -0.015697 -0.023197
0.061904 -0.033831 0.013909
0.038554 -0.037456 -0.014708
0.028380 -0.024107 -0.023297
-0.007064 0.040414 -0.023609
0.039398 -0.026962 -0.020514
-0.033978 -0.004641 -0.023471
-0.058233 0.040002 0.014656
0.054973 0.043015 0.011050
-0.041652 0.045402 -0.002572
0.059748 -0.034656 0.009175
0.028958 -0.073041 0.030340
0.003404 0.051713 -0.015066
-0.029024 -0.070715 0.028173
0.006739 -0.062827 -0.002683
-0.029872 -0.067971 0.027760
0.016371 -0.072712 0.027991
0.043564 0.035288 -0.012362
0.028182 -0.068295 0.027553
-0.040641 0.065730 0.028859
0.042405 -0.010219 -0.024309
-0.072830 -0.004835 0.023289
-0.051370 0.031215 -0.005386
0.045659 -0.055161 0.016577
0.045689 0.047295 0.002059
-0.030029 -0.035119 -0.022101
0.000916 -0.073913 0.027168
-0.048976 0.047824 0.008789
-0.039380 0.023871 -0.020544
0.063240 -0.016584 0.001679
0.050592 0.051580 0.021785
-0.006468 0.007538 -0.022081
0.069429 -0.019278 0.015951
-0.021512 -0.048783 -0.014995
-0.064437 0.000414 -0.000649
-0.055000 -0.059562 0.026852
-0.035737 -0.063644 0.019486
-0.019241 0.044994 -0.017745
-0.043841 -0.016155 -0.021386
0.021783 -0.007688 -0.022473
0.008751 -0.062945 -0.004094
0.020178 -0.003051 -0.023350
-0.015266 -0.040151 -0.023445
-0.045388 0.050924 0.010835
-0.059467 0.019373 -0.001752
0.058627 0.044855 0.027183
-0.044474 0.007962 -0.022279
0.064220 -0.029844 0.014835
-0.034170 0.066661 0.027048
-0.034258 0.047648 -0.007141
-0.015460 -0.012716 -0.023148
-0.028391 0.015730 -0.023272
0.052990 -0.031983 -0.006472
0.066921 -0.023347 0.015073
-0.047527 -0.060866 0.028582
-0.041625 -0.027105 -0.018001
-0.031336 -0.067304 0.025288
0.030457 0.051369 -0.007775
-0.050165 0.025221 -0.010673
0.064579 0.038440 0.028118
0.002701 -0.047712 -0.022071
0.008438 0.068810 0.014247
0.070298 -0.004041 0.013892
-0.062919 -0.034236 0.019070
-0.014005 -0.076108 0.029994
0.032586 -0.056232 0.000793
-0.035693 0.042579 -0.010877
0.055834 0.007073 -0.012684
-0.012868 -0.070172 0.018071
0.064150 0.021581 0.005161
-0.027986 -0.065641 0.012734
0.017547 -0.050427 -0.015008
-0.025447 -0.027356 -0.023174
0.003204 0.007936 -0.022916
0.027279 -0.061753 0.005681
0.035475 0.015311 -0.023137
0.045281 0.025159 -0.015867
0.027842 0.022642 -0.023964
-0.015779 0.069398 0.018652
-0.008466 -0.073518 0.023807
-0.062775 0.000037 -0.001790
-0.006707 -0.066847 0.004968
0.049402 0.062833 0.027278
0.053159 0.033156 -0.003856
0.080051 0.007010 0.028405
0.030487 -0.055720 -0.003991
-0.014532 -0.068976 0.013497
-0.051410 -0.012925 -0.014489
0.051147 0.048868 0.017669
-0.060535 -0.026709 0.004362
-0.055386 -0.059421 0.028685
0.043455 -0.055847 0.014088
-0.060190 -0.042124 0.023376
-0.041772 -0.012553 -0.024139
-0.070909 -0.026331 0.028830
0.049398 0.051745 0.023092
0.053740 0.013143 -0.012357
0.071330 -0.001617 0.018749
-0.065183 0.028878 0.016766
0.056026 0.044375 0.016789
0.011343 0.076515 0.028574
-0.009888 0.060858 -0.004181
0.074725 0.005008 0.028121
-0.060246 -0.043770 0.025647
0.012004 -0.064973 0.002038
0.011432 0.067621 0.011719
-0.018483 0.037736 -0.024220
0.024686 -0.049835 -0.014093
-0.018421 -0.033110 -0.023103
0.039005 -0.049114 -0.003394
-0.000313 0.005789 -0.022036
-0.042644 -0.056845 0.012428
-0.078831 -0.014218 0.026797
-0.019406 -0.067905 0.013690
0.072182 -0.004384 0.017867
0.000201 0.034107 -0.023859
-0.017752 -0.061962 -0.002234
0.043326 -0.031340 -0.014901
-0.066473 -0.028389 0.022369
-0.054007 -0.005372 -0.013210
0.074002 0.005252 0.026050
-0.028328 -0.017398 -0.022697
0.063836 0.030038 0.015307
-0.040744 -0.047895 -0.002401
0.040522 0.037111 -0.012426
-0.056049 -0.040050 0.007403
0.069091 -0.022183 0.017572
-0.070842 -0.003094 0.017055
0.012911 -0.042007 -0.023481
0.072712 -0.014470 0.025850
0.015226 0.066295 0.007915
-0.030303 -0.017844 -0.023796
0.058419 -0.043630 0.023935
0.064455 -0.012818 0.000458
0.043287 -0.060299 0.025439
0.007551 -0.072464 0.023210
-0.053669 -0.035454 -0.000292
-0.038007 0.024707 -0.021568
-0.028610 -0.057355 -0.000828
0.041119 0.060143 0.024601
-0.025738 -0.063672 0.008595
-0.055479 0.042737 0.016175
-0.053703 0.048213 0.022469
0.002588 0.070246 0.014646
0.056085 0.009677 -0.010685
-0.054296 0.042652 0.013089
-0.064553 -0.023322 0.009154
-0.026650 -0.038933 -0.020569
-0.022516 -0.075093 0.030157
-0.079024 0.000771 0.029390
0.010229 0.056670 -0.008503
-0.014894 0.007521 -0.021971
0.015900 -0.055546 -0.010316
-0.073034 -0.014979 0.026640
0.019383 0.028172 -0.023036
0.009837 -0.034522 -0.024018
0.026271 0.055590 -0.003498
-0.020733 0.029148 -0.022924
0.020186 -0.013204 -0.023507
-0.023609 -0.026887 -0.023012
-0.033671 0.040545 -0.014183
-0.045370 -0.067201 0.027967
-0.061229 -0.000215 -0.004571
0.040781 -0.009778 -0.023522
-0.030579 -0.003048 -0.023319
0.022716 -0.076764 0.029971
-0.063839 -0.046949 0.029847
-0.019680 0.069255 0.023106
0.043731 -0.046288 -0.003602
0.009241 -0.055313 -0.012381
0.010473 0.022259 -0.023570
-0.031142 -0.035718 -0.021872
-0.024915 0.059133 0.001843
0.074993 0.014725 0.027769
-0.041974 0.054429 0.012329
-0.000679 -0.054127 -0.014509
0.048922 0.052782 0.024692
-0.071517 -0.036380 0.026734
0.052032 -0.055966 0.028115
0.030326 -0.021487 -0.023312
0.016619 0.068092 0.013441
0.029505 -0.003024 -0.022667
0.049914 -0.001403 -0.018051
0.030638 -0.060691 0.004265
-0.065720 0.024643 0.015920
0.041146 -0.013478 -0.023422
0.040267 0.039623 -0.011827
-0.025261 0.050458 -0.011279
-0.035278 -0.017018 -0.024152
-0.003591 0.069283 0.011566
0.038817 -0.028635 -0.019885
0.022304 -0.017513 -0.022871
-0.064089 0.021624 0.008375
-0.063996 0.031915 0.017767
0.001753 -0.000003 -0.022182
0.022058 -0.047951 -0.015493
-0.004653 0.031601 -0.023718
0.041385 -0.025892 -0.019255
-0.001447 0.015619 -0.023289
0.043251 -0.024434 -0.018435
0.038598 0.022306 -0.023978
-0.040735 -0.050573 0.001209
-0.025531 -0.071974 0.028200
0.071923 -0.004508 0.016058
-0.004493 0.071427 0.024442
-0.001752 -0.054137 -0.015632
-0.058591 0.037917 0.014631
0.037284 -0.016377 -0.023294
0.055620 -0.022670 -0.006945
-0.000007 0.028801 -0.022671
0.045380 0.065603 0.027345
-0.053661 0.034144 0.000256
0.018401 0.069670 0.025128
-0.011663 -0.018082 -0.022142
-0.043796 -0.043380 -0.004402
0.019532 -0.010650 -0.023489
-0.054227 0.049219 0.025950
-0.048556 0.039595 -0.002989
0.031436 0.051939 -0.004887
0.000011 0.058685 -0.007338
-0.011919 0.059049 -0.004476
-0.036284 0.069328 0.028617
0.052392 -0.035715 -0.004095
-0.035715 0.032159 -0.019675
-0.002228 -0.058202 -0.010938
-0.076639 -0.007215 0.027721
-0.013163 0.020287 -0.022356
-0.044834 -0.025339 -0.017450
0.072029 0.005650 0.023673
0.070388 -0.029766 0.027987
-0.051905 0.055322 0.028869
-0.029802 -0.045420 -0.014087
-0.026588 -0.075984 0.026980
0.033812 0.060881 0.011343
0.037892 0.058698 0.012004
0.027983 -0.061202 0.005174
0.060761 -0.008474 -0.005171
-0.046521 -0.043711 -0.000979
0.043073 0.031102 -0.015609
-0.058930 -0.053443 0.026743
-0.036846 -0.055571 0.004232
-0.023097 -0.005949 -0.022204
0.036020 0.055351 0.005213
-0.044098 0.059582 0.026709
0.071741 -0.006043 0.020226
0.070738 0.007296 0.013246
