0.027090 0.085852 -0.001957
0.037964 0.128740 0.000914
0.024099 -0.050361 0.004396
0.007287 0.021046 0.007321
0.024673 0.058283 0.000853
0.022053 0.079098 0.002698
-0.039547 -0.006189 -0.007358
0.001247 -0.021753 0.007417
0.027818 -0.015694 -0.002681
-0.013467 -0.028342 -0.004298
-0.031475 0.003305 0.004602
0.036733 0.122755 -0.000722
0.030308 -0.023049 0.004688
0.023499 0.056724 0.002404
-0.026851 -0.048595 -0.003004
0.020047 -0.058976 0.004379
-0.010130 -0.035011 -0.006351
-0.000402 0.012212 0.005523
-0.045121 -0.011844 0.005806
-0.010642 -0.027066 0.001318
-0.048136 -0.049172 -0.000165
-0.012376 0.014260 -0.001585
0.013909 -0.070530 -0.001502
-0.049794 -0.024250 -0.005576
-0.016909 -0.021523 -0.003785
0.030951 -0.027529 -0.002264
0.022602 -0.055532 0.004867
-0.005243 0.002681 0.004847
-0.001185 0.005466 0.005814
0.038477 0.126841 0.001059
-0.053324 -0.020024 -0.001038
-0.004870 -0.022527 -0.006599
-0.005138 -0.065833 -0.004595
0.025103 0.069756 -0.001937
0.040932 0.125983 0.000004
0.037422 0.102234 -0.000039
0.013217 0.014745 -0.006154
-0.025731 -0.039590 -0.003348
0.006623 -0.013731 -0.002168
0.016308 0.001856 -0.005807
0.030560 -0.029221 -0.004669
0.009129 0.047130 -0.001122
-0.017247 0.004494 0.005968
0.022772 0.043544 -0.000576
-0.036306 -0.008156 -0.004519
0.025219 0.068295 0.002730
0.034882 0.092984 0.000406
0.023965 -0.055595 0.005434
0.016104 0.006593 -0.005370
0.019927 0.064091 0.002758
0.005738 0.023315 0.007001
0.026715 0.083118 -0.001957
0.017949 0.045810 0.002649
-0.018684 0.010137 -0.004669
0.003062 -0.005552 -0.007055
-0.000099 -0.051867 -0.000319
0.016985 0.045392 0.002687
-0.026221 0.003251 -0.006845
-0.049382 -0.018905 0.005558
0.004324 0.012781 -0.006953
-0.005004 -0.051973 0.006848
0.016193 0.001292 0.006827
0.037331 0.108395 -0.001739
0.028887 -0.048260 -0.003346
0.007613 0.012326 -0.007127
-0.005423 -0.007545 -0.000801
0.019473 0.084907 0.000554
0.013874 0.050004 -0.001948
-0.052556 -0.018243 -0.003295
-0.027624 -0.009090 0.003098
-0.040008 -0.042620 -0.003279
0.021360 -0.005071 0.006412
0.020891 0.060900 0.002799
0.024860 -0.022932 -0.001742
0.024295 -0.058321 0.005493
0.011049 -0.005906 0.006765
0.003468 0.035884 -0.004466
0.020575 -0.056274 0.003340
-0.021595 -0.041464 -0.004975
-0.008813 -0.041225 0.003018
0.017773 0.062555 -0.002030
0.021532 -0.054589 -0.004274
0.023226 0.047104 0.000309
-0.050895 -0.032279 0.004629
0.014035 0.062064 0.000227
0.026058 0.076553 -0.001960
0.015114 0.067784 0.000430
0.018878 0.031291 0.006279
-0.041446 -0.003793 -0.005700
0.002563 0.034407 0.001853
0.026086 -0.056710 0.003950
0.019211 0.006371 -0.000414
0.000360 0.027758 -0.002454
-0.046549 -0.041633 0.003710
0.021124 0.038171 -0.005536
-0.005512 0.009663 -0.005138
0.009855 -0.070767 0.006103
0.000679 0.024493 0.004689
0.025956 -0.052848 0.005517
-0.051072 -0.017550 -0.006775
-0.036820 -0.003531 0.006425
-0.017916 -0.041183 -0.000974
0.019786 -0.011623 0.000133
-0.008513 -0.060486 -0.004160
0.006297 0.028617 -0.006601
0.005738 -0.002310 0.007482
-0.002208 0.019900 -0.004806
0.025329 0.057296 0.000313
0.004539 -0.032722 0.004934
-0.008519 -0.029268 0.000802
-0.009696 -0.054575 -0.007263
-0.032845 0.002371 -0.005349
0.017380 0.004617 -0.005211
0.019499 -0.061930 -0.006056
0.009087 0.049711 0.000583
0.003545 -0.034979 -0.001824
0.030151 -0.023740 -0.003235
-0.023780 -0.037648 -0.003436
-0.008010 -0.042440 0.004378
0.000317 -0.000259 -0.005904
0.013188 0.059442 0.000128
-0.011439 -0.040289 -0.003089
0.031619 -0.033171 0.002242
0.025208 -0.058575 0.002664
-0.020197 -0.032070 -0.003332
-0.001221 0.006921 -0.005940
-0.026732 -0.004427 0.005503
0.004439 -0.025904 -0.002551
0.002432 0.001748 -0.006587
-0.003954 -0.015979 0.002443
-0.051385 -0.025851 0.005346
0.019762 0.024937 -0.002748
-0.021952 -0.046058 -0.000521
0.038731 0.127662 -0.000618
0.020292 0.069306 -0.002025
-0.039498 -0.049938 -0.005831
-0.041482 -0.051471 -0.003573
0.018683 0.022945 -0.004485
0.011817 0.006049 0.007200
-0.007994 0.008476 0.005356
0.012653 0.046748 -0.001925
0.005919 -0.023125 -0.001029
0.008424 0.034800 0.005140
0.021851 0.068221 -0.001997
0.024672 -0.013819 -0.005819
0.001658 -0.002069 -0.006563
-0.011059 -0.050394 -0.004103
0.004627 -0.029728 0.005424
0.023937 0.057211 0.001823
-0.009210 -0.000199 -0.005569
0.022015 -0.014598 -0.002203
0.021064 0.076624 0.002681
0.006855 -0.065787 -0.001267
-0.007909 -0.058642 0.004975
0.022157 0.074543 -0.002002
0.020055 -0.065888 0.000029
0.001011 -0.046161 0.004102
-0.003215 0.022643 0.001860
-0.048036 -0.047732 0.004549
-0.002312 -0.059569 -0.005834
0.004079 0.040059 0.003425
0.017962 0.073598 0.000314
-0.000453 -0.015664 -0.005927
-0.010847 -0.022857 0.005052
0.024616 0.057319 -0.001944
-0.018827 -0.019115 -0.001155
-0.017973 -0.028844 -0.004138
-0.021227 -0.045730 0.000507
-0.007236 -0.063587 -0.000658
-0.031706 -0.044599 0.002946
0.028103 -0.015727 -0.000449
-0.050939 -0.045960 -0.001689
-0.017693 -0.024257 -0.003289
0.000531 -0.002537 -0.005854
0.000103 -0.019304 0.007228
-0.016526 -0.024133 0.003878
-0.000096 -0.060097 -0.000501
-0.005505 -0.019285 0.001801
-0.035124 -0.000961 0.006498
-0.037232 -0.043677 -0.003645
0.017905 -0.009743 0.000911
0.001770 -0.040978 -0.002305
-0.022456 0.006528 0.005853
-0.031053 0.003746 0.002835
0.027982 -0.015407 -0.000390
0.031415 -0.037742 0.001124
0.026636 0.100300 0.002665
0.008755 -0.010671 0.004587
-0.010519 -0.031537 -0.000767
-0.027639 0.002850 -0.006954
0.039429 0.114282 -0.000538
-0.045416 -0.044506 -0.005946
-0.011242 -0.049193 -0.002715
0.006499 -0.000533 -0.007108
0.030775 0.072455 -0.001165
0.004392 -0.034039 0.004718
0.025091 0.104354 0.001838
0.014030 0.052037 -0.001980
-0.016117 -0.010059 -0.006217
-0.002214 -0.058433 0.005153
-0.023883 -0.010570 -0.000413
-0.021473 -0.013166 0.000288
0.004123 0.005538 -0.007198
-0.011069 -0.014057 0.005459
0.024315 -0.012172 0.006487
-0.007392 0.007207 0.005318
0.017279 0.074117 0.000394
-0.014429 -0.005475 -0.006548
-0.030009 0.003191 0.006207
0.015629 -0.008310 -0.000638
0.021471 0.081851 -0.000665
-0.025191 0.003441 -0.006777
-0.013340 0.006082 0.005724
-0.010433 -0.029712 -0.004527
0.034459 0.105304 0.000765
0.014169 0.039201 0.005468
0.001513 -0.044236 0.004383
-0.024211 0.006955 0.005150
-0.010964 -0.007213 0.005683
0.020425 -0.056721 0.003444
-0.034158 -0.049065 0.003757
-0.011019 -0.036705 -0.001957
-0.027703 -0.003808 -0.005660
0.025193 -0.023563 0.002979
0.019740 0.077565 -0.000254
-0.016750 -0.022754 0.003793
0.012644 -0.005256 -0.004990
-0.007591 -0.061156 0.003700
0.000646 -0.000300 -0.005285
-0.015424 0.009749 0.005363
0.026211 -0.040539 -0.004499
0.029866 0.116221 0.000274
0.002082 -0.014334 0.007472
0.002284 0.033486 -0.000028
-0.022843 -0.003541 -0.006260
0.007215 0.008427 -0.007139
-0.002905 0.022312 -0.003511
-0.031477 -0.044665 0.002995
0.024949 0.098833 0.002668
0.002207 0.029903 -0.004823
0.003733 0.017657 0.006726
0.019659 -0.006851 -0.005891
-0.005598 -0.029859 0.004477
-0.006356 -0.038742 0.005684
0.021591 0.039451 0.003156
-0.009100 -0.049536 -0.007310
-0.042666 -0.016491 0.000479
-0.045565 -0.007768 0.005338
0.025832 -0.033011 -0.000377
-0.041626 -0.052045 -0.001997
-0.004535 -0.032246 -0.006447
0.024756 0.087921 0.002705
-0.005156 -0.066073 -0.003204
0.013887 0.026689 -0.006809
0.007129 0.021294 0.007301
0.034719 0.090142 -0.001673
0.026180 -0.026550 0.003904
0.016539 0.070161 0.000354
0.019230 0.000545 -0.005224
0.014729 -0.066767 -0.006521
-0.012659 -0.000092 -0.006149
0.012786 -0.005497 -0.004758
-0.052558 -0.032489 -0.006772
-0.010432 -0.036633 -0.006338
-0.052444 -0.033094 -0.006765
-0.011280 -0.037468 -0.004164
0.022544 0.072997 -0.001989
-0.009947 -0.053933 0.000884
-0.010015 -0.036078 -0.000117
-0.002187 -0.001227 0.006015
-0.020156 0.009812 -0.001783
-0.040031 -0.002401 0.005223
-0.009487 -0.016472 0.002128
-0.052679 -0.018661 0.002071
-0.002690 -0.031536 0.006975
-0.000618 -0.002754 -0.004971
-0.019890 -0.028431 0.002057
0.024500 -0.044842 0.002005
-0.048541 -0.047750 -0.003879
-0.009275 -0.008459 0.005246
-0.014407 -0.021531 -0.005632
0.019587 0.073906 0.002679
0.031028 0.079611 0.000415
0.023293 -0.049024 0.002520
-0.010974 -0.038587 -0.006062
0.028586 -0.023430 0.006213
-0.021929 -0.034617 0.002623
0.022581 0.048794 0.000971
0.021569 0.090743 0.000343
-0.006652 -0.016315 -0.005561
0.037537 0.111033 0.000625
0.028029 0.070329 -0.001925
-0.053069 -0.030527 -0.006793
0.016444 0.064604 -0.001980
0.010065 -0.072076 0.004359
-0.029436 -0.047737 -0.005189
-0.053006 -0.020312 0.004393
-0.044325 -0.014224 -0.005196
-0.023061 -0.001607 0.006150
0.025296 0.052969 -0.001614
-0.000497 -0.063169 -0.006163
0.000497 0.011234 0.005995
0.009888 -0.066386 -0.004483
-0.018929 -0.030220 -0.003708
-0.000434 -0.048319 0.005002
-0.018051 0.009125 -0.005732
-0.005781 -0.064413 -0.006565
-0.046343 -0.045684 -0.006371
0.029517 0.105406 0.002687
0.033379 0.112698 -0.001544
-0.004552 -0.032709 0.006161
-0.006876 0.015939 0.005021
0.002550 0.010968 0.006698
0.008649 0.011156 0.007404
0.007331 -0.072514 0.002232
0.038239 0.127569 0.001529
-0.013549 -0.033923 0.004533
0.003325 -0.071645 -0.002249
0.021186 0.063927 0.002791
0.020932 0.061914 0.002790
0.017856 0.015110 0.004577
0.019328 0.080001 0.000369
-0.017250 0.006289 0.005793
0.019897 0.075112 0.002677
0.001560 -0.043580 0.004664
-0.004674 0.005942 0.004850
-0.024019 -0.008737 -0.002507
0.001522 -0.068524 -0.007625
-0.006282 -0.014043 -0.002702
0.030475 -0.044414 0.002514
0.033558 0.115018 -0.000463
0.025017 0.054023 -0.001975
0.022287 -0.014597 0.004298
0.019601 0.004124 0.000941
0.010631 0.038230 0.005104
0.012499 0.047171 0.002549
-0.028468 -0.047018 -0.005176
0.004489 -0.068432 0.005888
-0.002592 0.013804 0.004686
0.023791 -0.060620 -0.001066
0.004552 -0.031069 0.005278
-0.012977 0.011847 -0.005364
0.024553 0.050514 -0.001743
0.021003 0.037684 -0.005547
0.013036 0.005881 -0.006139
-0.035242 -0.052995 0.001615
0.015834 0.024959 -0.006151
-0.018773 -0.039603 -0.004157
0.024186 -0.019097 -0.003504
0.018947 0.020804 0.003676
0.006470 0.006582 -0.007137
-0.017878 -0.039602 -0.002948
-0.008358 -0.041546 0.003775
0.025005 -0.049816 -0.005429
0.001201 -0.071168 0.001194
-0.012308 -0.007948 -0.006166
0.005857 -0.072048 -0.003035
-0.019650 0.010063 0.000366
-0.010607 0.013801 0.005069
0.007159 0.025532 0.007229
0.032589 0.118961 0.000289
0.037891 0.122268 0.000874
0.017444 0.043183 0.006575
0.014414 0.045296 -0.004383
-0.024847 0.001428 -0.006991
0.003404 -0.071957 0.002607
-0.005202 -0.042523 0.006832
-0.010573 -0.018384 -0.003092
0.015559 0.007184 0.006442
0.030090 -0.038345 -0.005049
0.000958 0.029251 0.000072
0.036362 0.117385 0.001278
-0.050510 -0.025793 0.004831
0.015544 0.054406 -0.001990
0.022112 -0.008522 -0.005856
0.021962 0.034994 -0.003482
-0.008161 -0.007149 0.001359
-0.016649 0.009102 0.005422
-0.016804 0.006904 0.005720
-0.008934 -0.029921 -0.006383
0.024087 -0.020088 0.002583
0.002472 -0.043303 0.000833
-0.055039 -0.028740 -0.000569
-0.017552 -0.024691 0.003390
0.018959 0.058410 0.002751
-0.048154 -0.033551 0.002341
0.008945 -0.007831 0.006544
0.040427 0.123942 0.000580
-0.015457 -0.008554 -0.006625
0.003812 0.026418 0.006174
0.019522 0.026185 -0.004390
0.017273 0.053704 0.002714
0.003655 0.018875 -0.006530
0.000136 -0.005813 -0.006661
0.002630 -0.022007 0.007341
-0.002486 0.023720 0.000355
-0.013438 -0.002059 0.006033
0.016116 0.044852 -0.004317
0.016157 -0.068569 0.005763
-0.004072 0.000159 0.004902
0.027957 0.103297 0.002680
0.030950 -0.041606 0.001815
-0.011882 -0.001324 0.005879
-0.009126 -0.056118 -0.007404
-0.044756 -0.006547 0.004403
0.007776 0.015909 0.007409
-0.013784 -0.034649 0.004461
-0.051974 -0.044430 -0.000396
0.036909 0.118147 0.000892
0.000761 0.013235 0.005958
-0.027724 -0.004233 0.005542
0.025113 -0.047390 -0.005038
0.023000 -0.014260 0.005544
0.007098 0.010040 -0.007145
0.007964 -0.071669 -0.004982
0.000130 -0.069132 -0.007091
-0.002698 -0.044414 -0.005335
0.028948 0.102192 0.002702
0.021978 0.034361 -0.002860
0.008384 -0.065926 0.001801
0.027488 -0.014084 0.000364
0.023733 0.048201 -0.001830
-0.054908 -0.027356 -0.002061
0.013176 0.045271 -0.004955
-0.054916 -0.029660 -0.003894
-0.018695 -0.006719 0.005623
0.019825 0.001910 0.004920
0.004647 0.017271 -0.006834
0.023512 -0.018518 0.002431
-0.037917 -0.051125 0.003957
0.031057 -0.029643 0.005586
0.031080 0.098174 -0.001890
0.026780 0.058950 -0.001894
0.016396 0.039456 0.006813
0.006589 -0.072240 -0.002260
0.000990 0.027457 0.004377
0.020641 0.028347 0.000718
-0.023172 -0.047036 -0.000759
0.037252 0.118426 -0.001651
-0.035057 -0.043382 0.002149
0.020193 -0.065608 -0.000790
-0.020268 0.000379 0.006330
-0.052507 -0.035498 0.005311
0.031756 0.103999 -0.001868
-0.009528 -0.017018 0.004186
0.015657 0.040064 -0.006548
0.030063 -0.042742 -0.003798
0.022829 -0.004402 0.001572
0.026455 0.057684 -0.001895
-0.027469 -0.049491 -0.002124
0.006837 -0.003270 -0.007166
-0.050446 -0.046813 -0.000228
-0.000072 -0.011706 -0.006366
0.029502 -0.045430 -0.003788
0.006468 -0.025111 0.001376
0.005891 -0.012967 -0.003251
0.005916 -0.011546 -0.003816
0.001230 -0.009813 -0.006446
-0.022059 -0.008799 0.004690
-0.051641 -0.023934 -0.006835
0.025307 0.092215 0.002681
0.003805 -0.025245 0.006493
-0.010613 -0.053187 -0.004399
-0.003306 -0.001984 0.005653
0.001254 -0.040531 0.005894
0.019699 0.068892 0.002735
-0.020129 -0.044619 0.000519
-0.018784 -0.016105 0.003460
0.026231 -0.042725 0.004299
0.033730 0.087085 0.000438
0.012292 0.018605 -0.006684
0.010210 0.024198 -0.007141
0.023721 -0.015156 0.005786
0.021063 0.063443 0.002787
-0.001945 -0.027586 0.006996
-0.047797 -0.047869 -0.004717
-0.044804 -0.006553 -0.004578
0.019691 0.084339 0.002536
0.005734 -0.019013 0.005648
0.036028 0.121213 0.002438
0.027828 0.070183 -0.001931
0.008785 -0.070822 -0.006794
-0.041008 -0.012852 0.003586
0.008139 0.026521 -0.007022
0.009101 0.003617 0.007352
0.020073 0.002258 -0.002598
0.018910 0.007731 -0.001257
0.026923 -0.028821 -0.004954
0.015011 -0.062456 -0.001111
0.021641 0.060625 0.002818
-0.012437 -0.027873 -0.003132
0.021763 -0.002325 -0.003128
0.030820 -0.024950 -0.000335
-0.001435 -0.069615 0.002392
0.019007 0.007216 -0.001157
0.020413 0.060371 -0.001992
0.021479 0.052794 0.002786
0.010888 0.045525 -0.003538
0.017896 0.009421 0.004979
0.030073 -0.044427 -0.002127
-0.023763 -0.002437 0.005990
-0.015123 0.007015 -0.005895
0.035769 0.110567 -0.001767
-0.048192 -0.047091 -0.005342
-0.008666 -0.030016 0.000760
-0.010476 -0.002341 0.005721
-0.042227 -0.010281 -0.006446
-0.040509 -0.003215 0.005989
-0.022243 -0.010779 0.003751
-0.006674 -0.063769 0.002932
0.002104 -0.010228 0.007425
-0.001785 -0.042533 -0.004962
0.016356 -0.005579 0.006881
0.012031 0.059988 0.000692
0.022579 -0.049631 0.000205
-0.011008 -0.040453 -0.006214
0.006165 -0.019353 -0.001221
-0.004888 -0.001663 0.004525
0.015425 0.070050 0.000448
-0.006561 -0.015491 -0.005297
0.030565 -0.033072 -0.004913
-0.001193 0.001774 0.006132
0.013343 0.043314 -0.007386
-0.025014 -0.007955 -0.002847
-0.016791 -0.033182 -0.005118
-0.043359 -0.049398 -0.005799
0.029948 -0.021808 0.004953
-0.024907 -0.004374 0.005580
-0.020402 0.009695 -0.001543
-0.001005 -0.069843 0.003257
0.025937 -0.035214 0.001550
0.020316 0.047384 0.002714
0.002538 -0.023205 -0.004231
0.023239 0.072929 0.002783
0.022912 0.083789 0.002685
0.027549 0.110762 0.002483
0.016098 -0.069069 -0.002465
0.005583 0.008231 0.007286
-0.019916 -0.044472 0.000780
0.001936 0.012247 -0.006526
0.003129 -0.040622 0.000105
0.003668 0.008589 0.007021
-0.037411 -0.045219 -0.004564
0.028963 0.070267 -0.001922
0.004102 -0.038148 0.002650
0.019124 0.030020 0.006050
0.011079 -0.007580 -0.002894
-0.003122 -0.022079 0.005380
-0.016520 -0.028046 0.003990
0.030901 -0.040841 -0.000606
0.011491 0.015462 -0.006706
0.028646 -0.017025 0.000340
0.005516 0.028592 0.006697
-0.049668 -0.027377 0.003886
-0.010162 0.015084 0.004739
-0.017318 -0.000577 -0.006708
0.003401 -0.009062 0.007579
0.015367 0.040616 -0.006838
0.007117 -0.010037 0.006742
0.017061 0.069432 -0.000756
-0.010589 -0.053054 -0.005162
-0.000073 -0.049534 -0.001847
-0.013267 -0.007660 0.005934
-0.015262 -0.036425 0.004758
0.028270 0.100189 -0.000896
-0.053046 -0.022878 0.005606
0.003759 -0.004748 0.007473
0.011686 -0.065240 -0.002632
-0.054914 -0.033867 0.000188
-0.005767 0.001780 0.004962
-0.042915 -0.050544 -0.004610
0.014178 0.067614 0.002275
-0.009475 -0.052643 0.002535
0.026438 0.081280 0.002776
0.031508 -0.030738 0.003979
0.026178 0.101561 0.002651
-0.000996 -0.055920 0.003284
0.011758 0.055849 0.002579
-0.034585 0.001661 0.003107
-0.024495 -0.010100 -0.000641
-0.009088 -0.059356 -0.002597
0.029390 0.089597 -0.001934
0.018172 0.077535 0.002631
0.013760 0.044041 -0.007223
0.021514 0.043878 0.002127
-0.010083 -0.003847 0.005637
0.029393 0.104923 0.002686
-0.025616 -0.003991 0.005636
0.018461 0.030643 -0.005708
0.028729 -0.050231 0.000020
-0.000670 -0.068357 0.006431
0.018209 0.005311 -0.004813
0.020959 0.030082 -0.000698
-0.035094 -0.046264 0.003150
-0.005341 -0.061691 0.006535
0.001694 -0.065612 0.004963
0.004392 0.041185 0.001034
-0.045465 -0.006763 -0.000190
0.020966 0.034155 -0.005023
0.002533 -0.043084 0.000786
-0.017535 -0.002640 -0.006853
0.019819 0.030588 -0.005117
-0.018594 -0.023047 -0.001838
0.021311 0.064409 0.002789
0.019183 0.061197 0.002758
0.021999 0.052190 -0.001929
-0.000684 -0.069546 -0.004276
-0.040930 -0.003567 -0.006171
-0.000822 -0.030618 -0.005339
0.024284 -0.047801 0.003521
-0.053319 -0.037986 -0.006383
0.022107 0.034775 0.000970
-0.049735 -0.036367 -0.005638
0.025445 0.065216 0.002066
-0.007420 -0.060596 0.005100
0.016800 0.060794 -0.002032
0.029984 -0.025736 0.006059
-0.008153 -0.061004 -0.005201
-0.023238 0.001416 0.006370
-0.007426 -0.037460 0.004215
0.002505 -0.069615 -0.007482
0.005572 0.026001 0.006830
-0.054871 -0.034832 -0.001607
0.031289 -0.027713 0.004212
0.003491 -0.071896 0.003921
0.023184 -0.060878 0.005287
0.019833 0.064476 -0.002007
0.025802 -0.037819 -0.002622
0.017023 0.054709 -0.001976
0.003135 -0.012099 0.007570
0.022670 0.056152 -0.001959
0.034892 0.126350 0.000424
0.035100 0.102744 0.000520
0.031048 -0.040963 0.002406
0.018726 0.061180 -0.002010
0.003683 -0.069995 -0.007375
-0.047922 -0.010472 0.004564
-0.046089 -0.008918 -0.006434
0.004105 -0.064895 -0.000248
0.026226 0.099706 0.002651
-0.052811 -0.023242 -0.006736
0.024110 -0.058864 -0.004885
0.028118 0.084659 0.002766
-0.040126 -0.049492 -0.005963
-0.001333 0.006434 -0.005949
-0.010323 0.015225 -0.004280
0.010846 0.043444 -0.007023
0.020589 0.086943 0.002633
0.023408 0.084279 -0.001896
-0.043875 -0.011133 -0.006870
0.002795 -0.035351 -0.002601
0.015740 -0.061886 0.001764
0.022465 -0.012592 -0.005118
0.009027 0.045488 0.002571
-0.049040 -0.048270 -0.000938
0.009970 0.024280 -0.007146
-0.029840 -0.008566 -0.001498
-0.001890 -0.051989 -0.004083
-0.053600 -0.040125 0.002948
-0.003839 -0.016136 0.002680
0.015488 0.055735 -0.002007
0.007316 -0.013698 -0.001109
-0.050491 -0.014928 -0.006012
-0.054993 -0.033309 -0.001850
0.021803 0.034423 0.003386
0.015420 -0.006472 -0.003986
0.027971 0.104602 0.002659
0.034369 0.124120 0.000275
0.024157 -0.059756 -0.002321
0.000688 0.016588 0.005623
-0.048256 -0.018853 -0.006014
0.006205 -0.025821 0.000455
-0.016635 0.001955 0.006109
-0.001504 -0.053536 0.004700
-0.006147 -0.058807 0.006581
0.025542 -0.027585 0.000042
0.003082 0.005655 -0.007096
-0.044961 -0.011148 0.005921
0.028930 0.100102 0.002713
0.038679 0.113797 0.000654
0.002357 -0.019497 -0.004584
-0.022069 0.007624 0.005529
0.015049 0.045280 -0.003952
-0.030718 0.003796 0.004150
0.024613 0.092563 0.000277
0.019231 0.004701 -0.003299
0.026861 -0.055351 0.002104
0.003316 0.036377 0.000315
0.013070 0.030609 -0.005946
0.023622 0.059656 0.002735
0.018116 0.059813 -0.002020
-0.011025 -0.034179 -0.004305
0.025881 -0.036236 0.001562
0.015104 0.036505 -0.006834
0.016477 -0.063467 -0.005637
-0.012849 -0.012618 0.005598
0.006420 -0.025924 0.002193
0.003706 0.036547 -0.004634
0.024362 0.080174 0.002759
0.002177 -0.038992 0.005593
0.036594 0.098890 0.000190
-0.020490 -0.011981 -0.002211
-0.006919 -0.056416 -0.007640
-0.007705 0.004865 -0.005370
0.019181 -0.066650 -0.001097
0.017687 -0.068210 0.001042
-0.009849 -0.025990 -0.003563
-0.014041 -0.008723 0.005864
0.017205 -0.064878 -0.006281
0.027830 0.100890 0.002689
-0.048394 -0.022593 -0.004399
0.015402 0.020932 0.006557
-0.002647 0.009253 0.004500
-0.032265 -0.040741 -0.000264
0.025665 0.071074 0.002725
0.023066 -0.054391 -0.005508
0.026305 -0.012424 -0.003457
-0.023421 -0.047752 0.000967
0.031990 0.080228 0.000393
-0.040771 -0.041046 0.000714
-0.054315 -0.037068 0.003287
0.028880 0.064983 -0.000120
-0.050201 -0.019907 0.005663
-0.011527 0.014700 -0.002832
-0.054631 -0.035915 0.002020
0.022916 0.085804 -0.000711
0.007803 -0.012684 0.004514
0.020766 -0.005833 0.006650
-0.036407 -0.011066 0.001791
0.013460 0.061516 0.000377
0.001528 -0.032918 -0.003971
0.012637 0.061582 0.000559
0.005906 0.004650 -0.006175
-0.015130 -0.011630 0.005354
0.030930 0.093752 -0.001925
-0.038212 -0.011351 -0.002142
0.025439 0.086359 0.002724
-0.009706 -0.019453 0.003669
0.037899 0.114856 0.000659
-0.021105 0.009254 0.000787
0.026535 -0.041207 -0.004974
-0.012648 -0.030212 -0.002297
-0.033121 -0.042398 -0.002836
0.014962 0.032896 0.005295
0.000365 -0.048865 -0.001159
-0.048517 -0.011155 -0.004757
-0.009386 -0.010963 0.002391
-0.008104 0.001830 -0.005381
0.008783 0.036282 0.005168
0.029798 -0.031224 0.005917
-0.022256 0.008021 0.004853
-0.010312 -0.044993 0.000788
-0.023155 -0.047415 0.000427
0.007532 -0.015529 0.002277
-0.052198 -0.017374 0.001563
0.027551 0.085625 0.002787
-0.012424 -0.027101 0.005001
0.010310 0.018674 -0.007019
-0.005756 0.002425 -0.004997
0.016564 0.010490 -0.004925
-0.038969 -0.052807 -0.000368
-0.023235 -0.034108 -0.001044
-0.018829 -0.018597 -0.001235
-0.051187 -0.016197 -0.005752
-0.019490 0.005519 0.005914
0.024076 0.060692 -0.001965
-0.003254 -0.020352 -0.006404
-0.002290 -0.033847 0.007137
-0.050320 -0.013340 -0.001265
0.015678 0.071811 0.002552
-0.013895 0.009006 -0.005664
-0.002843 -0.052668 0.006134
0.029320 -0.047879 -0.001279
0.015936 0.060724 0.002680
-0.047941 -0.018879 -0.005688
0.033019 0.096720 -0.001896
0.034969 0.106370 0.000621
0.025135 -0.056826 -0.004935
0.032566 0.110132 0.002697
-0.009025 -0.038946 0.002318
0.002820 -0.064097 0.000264
0.018711 0.006304 0.004165
-0.016264 -0.039993 0.003833
0.032620 0.079201 -0.000665
0.000800 0.014663 -0.005978
-0.008095 -0.042483 -0.007126
0.000222 -0.050927 0.001870
-0.008902 -0.034780 0.001566
-0.032058 0.003142 -0.003861
0.003713 -0.032181 -0.002241
0.011527 0.046457 0.002552
-0.023973 -0.003526 0.005789
-0.000391 -0.028313 0.007289
-0.020748 0.005168 0.005979
0.026565 -0.015531 0.006423
0.004969 -0.007814 -0.005900
-0.044362 -0.006282 -0.005038
0.002033 -0.011514 0.007435
0.025281 0.052311 -0.001127
0.025185 -0.042440 -0.003055
0.010482 -0.008178 0.005251
0.030044 -0.022222 -0.001889
-0.047876 -0.010588 -0.005528
-0.004071 -0.059144 -0.007269
0.015676 -0.067850 0.005869
0.016194 0.032665 -0.006002
-0.002245 -0.062389 0.006003
0.031340 0.105466 -0.001780
-0.008464 0.003817 -0.005467
-0.048249 -0.041327 -0.006026
0.001370 0.005330 0.006680
0.017826 0.063815 -0.002026
0.024971 0.090293 -0.001473
0.004870 -0.013061 0.007374
0.017499 0.063561 0.002707
0.008846 0.044723 0.004459
0.039271 0.113209 -0.000733
-0.020782 0.003336 -0.006586
-0.015031 -0.022667 0.004440
0.025445 0.085556 0.002748
0.025015 -0.008954 -0.001738
0.018983 0.021401 0.004004
-0.049906 -0.043608 -0.006450
-0.009704 -0.019161 0.002014
0.028665 0.110010 0.000269
-0.012427 -0.007739 0.005866
0.025098 0.051276 -0.000291
0.006004 0.026571 -0.006634
0.017256 0.047307 -0.001877
0.023943 0.077673 0.002755
0.022318 -0.012798 -0.004832
0.027830 -0.020714 -0.005675
-0.041109 -0.014795 0.000810
-0.003190 -0.016451 0.003682
0.024791 0.088003 -0.001895
-0.009788 -0.021927 0.001089
0.018252 0.055310 -0.001982
-0.004799 -0.066443 0.003845
0.003934 0.038816 0.000418
0.010960 0.030131 0.005737
0.025854 -0.045198 0.004530
0.033315 0.098719 -0.001871
-0.044468 -0.005816 0.001835
0.019621 0.023347 0.003233
-0.048032 -0.049298 0.000300
0.021035 -0.053503 -0.001609
0.014285 0.056295 0.002645
0.020668 -0.064717 -0.002815
0.027485 0.078011 0.002634
0.008889 0.012113 0.007398
-0.023968 -0.002694 -0.006519
-0.048611 -0.031497 0.002565
0.022201 -0.061708 -0.005398
-0.023271 -0.047693 0.001284
0.013789 0.028602 -0.006651
0.006978 -0.014643 0.004980
-0.006778 -0.015387 -0.004095
0.024384 -0.021071 -0.001720
0.024833 0.084190 0.002744
-0.006300 -0.055201 0.006667
0.005862 -0.029874 0.002466
0.020802 0.030549 -0.003945
0.013717 0.003778 0.007037
0.000559 -0.004110 -0.006616
0.011186 -0.071838 0.003751
0.018311 0.020313 0.004996
-0.019351 -0.007479 0.005435
0.014958 -0.066875 0.005633
0.023162 0.052697 0.001609
0.017762 0.049715 -0.001929
-0.007701 -0.052254 0.006071
-0.014036 -0.035807 0.002435
0.002436 -0.026415 -0.004047
-0.044225 -0.005533 -0.002923
0.034164 0.116303 0.002663
-0.004166 -0.029737 -0.006408
0.001982 -0.015687 0.007470
-0.014316 -0.006036 -0.006534
0.024761 -0.012269 0.006467
0.006921 0.015652 0.007350
-0.017229 -0.039741 -0.001550
-0.010032 0.015886 -0.001283
-0.037233 -0.052770 -0.000813
0.013987 -0.063261 0.000085
0.016976 0.010751 -0.004761
-0.001946 -0.045234 0.006796
0.012679 0.062067 0.002504
0.026689 -0.055672 0.001645
0.005705 -0.027643 -0.000308
-0.001944 -0.064269 0.006316
0.014293 0.068834 0.001366
0.011540 0.006872 -0.006269
0.025029 0.062094 0.001761
-0.034991 -0.048572 -0.005696
-0.007483 -0.003551 0.005175
-0.011523 -0.018697 -0.005032
0.020530 0.052957 -0.001943
0.028350 0.085450 -0.001932
0.020682 0.000752 -0.001834
-0.038093 -0.010778 -0.002819
-0.016482 -0.010147 -0.005985
-0.024896 -0.042048 0.003639
-0.048231 -0.035222 0.002895
-0.019822 -0.000288 -0.006883
0.002608 -0.028690 0.006788
0.017877 0.022128 -0.004942
0.004673 0.029943 0.006303
0.006256 -0.026614 0.003417
0.020075 0.064391 -0.002007
0.027070 -0.039446 -0.005159
0.018904 -0.001273 -0.005640
-0.049636 -0.012213 -0.000428
-0.047929 -0.009871 0.000778
-0.006047 -0.058621 0.006600
0.032107 0.078391 0.000185
0.001566 -0.065123 0.004648
0.030331 -0.022407 0.002108
-0.024538 -0.035765 -0.001068
0.023431 -0.005811 0.003012
-0.004053 -0.021257 0.004169
0.018555 -0.058490 0.002219
-0.010048 -0.056095 -0.003446
-0.054669 -0.027273 -0.004373
-0.041823 -0.048164 -0.006145
0.020506 -0.065495 0.002129
0.003632 -0.016715 -0.004100
0.007552 -0.012777 -0.001296
0.008179 0.040861 -0.006355
-0.011164 -0.028154 0.001575
0.001261 -0.017616 -0.005189
-0.006837 -0.040462 0.005497
-0.045630 -0.037476 -0.002383
-0.011099 0.013442 -0.005180
0.020817 0.072802 -0.002007
0.003608 -0.038285 -0.000317
-0.020102 0.009356 0.004167
0.011065 -0.065189 0.000466
-0.032403 -0.003281 -0.006867
-0.027616 -0.001319 -0.007100
0.002325 0.011029 0.006634
0.019274 0.022308 -0.000283
-0.054874 -0.034149 0.001070
0.001707 0.029755 -0.004112
-0.019028 -0.019558 0.002360
0.039432 0.117720 0.000638
-0.043603 -0.043461 0.003259
-0.025508 0.001869 -0.006975
0.020019 0.071523 0.002696
-0.033401 -0.008012 -0.003229
-0.010519 -0.007646 0.005595
0.008876 0.007690 -0.005671
0.024943 -0.023390 -0.001563
0.018487 0.013320 0.000388
-0.009565 -0.013512 0.000611
-0.008370 -0.002805 -0.005377
-0.005463 -0.030856 0.004866
-0.041109 -0.044556 -0.004766
0.013319 0.039196 0.005325
0.031397 0.110687 0.000217
-0.029140 -0.004159 -0.005563
0.005181 -0.025220 -0.001805
-0.009188 -0.051629 -0.007396
0.023094 -0.048340 0.000812
-0.053559 -0.040726 0.000809
-0.009579 -0.055636 -0.007162
-0.034017 -0.004262 -0.006727
0.000863 -0.070322 0.005853
0.013918 -0.000185 0.007234
0.008002 0.037834 -0.005812
-0.002276 -0.000728 0.005936
0.028637 0.108065 0.002650
0.022354 0.054954 -0.001937
0.030377 0.082203 0.000426
-0.004663 0.019300 0.004886
-0.046686 -0.008470 0.002724
-0.011113 -0.047496 -0.006168
0.025907 0.082246 0.002753
0.022919 0.096550 0.002273
0.010133 -0.001443 0.007446
-0.008141 -0.025825 0.000399
-0.021023 0.006111 -0.006239
0.027458 0.084344 0.002792
-0.002306 -0.046277 -0.004947
0.030502 0.108215 0.002676
-0.030597 -0.051879 0.002685
-0.036785 -0.011400 0.000527
0.014265 0.038339 0.005309
0.036607 0.114816 -0.001710
-0.002973 0.012370 0.004722
0.026100 -0.048494 0.005283
-0.028879 0.004623 0.005125
0.008529 0.025926 -0.007079
-0.010162 -0.038335 0.000100
0.023912 0.098869 0.000365
0.006905 -0.004502 -0.006759
-0.012275 -0.016812 0.005380
-0.001811 -0.069041 -0.002870
-0.009241 -0.032006 0.000404
0.021174 -0.055612 -0.004520
0.001848 0.000841 -0.005633
-0.005375 -0.057741 0.006658
-0.029319 -0.009358 0.000206
0.024052 0.059113 0.002315
0.005038 -0.033765 0.003477
0.006679 -0.070686 0.006234
-0.050027 -0.023012 0.005031
-0.049942 -0.013023 -0.003641
-0.001384 -0.028266 0.007147
-0.003054 -0.009057 0.003760
-0.001322 -0.042875 -0.004647
0.012047 -0.071278 -0.002134
-0.002311 -0.068205 -0.005412
-0.020467 -0.034570 -0.004249
0.023058 0.050598 -0.001894
-0.003671 0.021916 -0.001995
0.011270 0.001248 -0.006767
0.012442 0.046191 0.002746
-0.041653 -0.048261 0.003925
0.010473 -0.065891 -0.003453
-0.011524 -0.040968 -0.003804
0.019594 0.064557 -0.002009
-0.026679 -0.050052 0.002797
0.021313 0.071481 0.002720
0.021117 0.030537 -0.002546
-0.000469 -0.058378 -0.000382
0.031165 -0.026555 0.002402
-0.039927 -0.047626 -0.005911
-0.033722 -0.041365 -0.001491
-0.047640 -0.016336 -0.006657
-0.001180 -0.043427 0.006683
-0.003078 0.018486 -0.004859
-0.009817 -0.056588 -0.005055
0.007505 -0.007192 -0.005175
0.028879 -0.049027 0.004900
-0.008578 -0.059015 0.002391
-0.053404 -0.038718 -0.005889
-0.051824 -0.042680 -0.005424
-0.002334 0.008746 0.004741
-0.017086 -0.016189 -0.003896
-0.010769 -0.031556 -0.003976
-0.039824 -0.004267 -0.007406
-0.039552 -0.005839 0.006262
-0.015157 -0.021056 0.004455
-0.023228 -0.040249 0.003688
0.015866 0.021410 -0.005807
-0.024137 -0.036652 0.002152
0.024618 -0.050187 -0.005346
0.017166 -0.068434 0.004924
0.003580 -0.064664 0.001443
-0.030246 0.004353 0.000152
-0.031411 -0.009555 0.000722
0.023462 0.055038 0.001927
0.010275 0.043141 -0.006926
-0.030438 -0.047705 0.003807
-0.001095 -0.001259 -0.005926
0.014896 0.030405 0.005944
0.035091 0.090092 -0.000389
0.022031 -0.003915 0.005663
-0.054115 -0.027407 -0.006306
0.037160 0.128778 0.000695
-0.043625 -0.049327 0.004279
0.031844 0.084848 0.000429
-0.013460 -0.021841 -0.005563
-0.040061 -0.012233 -0.002951
-0.019106 -0.027211 -0.002334
-0.042474 -0.012345 0.004610
0.026070 -0.037898 -0.003610
0.028773 -0.043821 0.005598
0.004119 -0.035815 -0.000516
0.023011 0.053707 0.002272
-0.018400 -0.033464 0.003882
0.004995 -0.016316 -0.003178
0.030814 0.118457 0.000245
-0.052246 -0.043925 0.000412
-0.013738 -0.016738 0.005109
0.029424 0.082196 0.001159
-0.023862 -0.036480 0.002227
0.035276 0.105411 -0.001810
-0.050847 -0.015252 0.004514
0.029281 0.080599 0.000886
-0.007592 -0.051678 -0.007496
0.001013 -0.066002 0.005593
0.031067 0.116380 0.002628
-0.015463 0.002302 0.006035
0.030557 0.114486 0.002627
0.026112 -0.037598 0.002726
0.015200 0.005019 0.006708
0.023643 0.049788 -0.001910
-0.046360 -0.041464 0.003600
0.024940 -0.043021 -0.002588
0.017396 0.013055 -0.004284
0.001108 -0.067068 -0.007627
0.003998 0.034715 -0.005239
-0.054488 -0.024481 -0.000529
0.033946 0.105660 0.001461
-0.001012 0.024375 -0.004180
-0.051063 -0.030455 0.004773
-0.008694 0.016956 0.001581
0.023780 -0.046228 -0.000267
-0.014167 0.004574 -0.006050
-0.006732 -0.003764 0.004865
-0.037559 -0.049561 -0.005842
-0.012615 0.006700 -0.005787
-0.007121 -0.041703 0.005396
0.010422 0.044434 0.006515
-0.026600 0.005943 0.004464
0.037203 0.106405 0.000564
0.017273 0.077047 0.002589
0.029189 -0.019371 0.005230
0.024283 0.080803 -0.001978
0.023299 0.045780 -0.001614
0.011488 -0.008487 -0.000747
0.008855 0.036493 0.005153
0.000710 -0.021393 -0.005193
0.017575 -0.067585 -0.003948
-0.019611 -0.001164 0.006322
-0.007522 -0.040180 0.004651
0.003382 0.032031 0.005512
0.000694 -0.047106 0.004085
-0.031040 -0.051990 0.001559
0.015993 -0.062179 -0.003318
-0.009997 -0.032250 -0.000527
0.025320 -0.011087 -0.004938
0.038507 0.125742 0.000914
-0.007668 -0.059235 0.005343
-0.034327 0.001686 -0.004450
0.034782 0.090382 -0.001676
-0.033081 -0.044195 0.002666
-0.011319 -0.004832 -0.006012
0.034238 0.095056 -0.001878
-0.010011 -0.021371 0.003978
-0.000627 -0.003309 -0.005359
0.027620 -0.047380 0.005527
0.010465 0.054406 0.002416
-0.020438 -0.014055 -0.000703
-0.052567 -0.043088 -0.001805
0.002755 0.032003 0.005024
0.005040 -0.065438 0.001962
-0.021031 -0.032393 -0.002646
0.014372 0.014265 -0.004432
0.024045 -0.057168 0.005553
-0.053784 -0.033225 0.005373
-0.051157 -0.043690 -0.005424
0.018196 0.020235 -0.000526
0.004731 0.041957 0.001379
-0.008418 -0.023153 -0.005928
-0.024675 -0.036763 -0.002071
-0.034721 -0.004158 0.006019
0.011619 -0.008480 -0.000563
0.031657 0.123487 0.002338
0.015875 0.067483 0.000285
-0.035333 0.001368 0.000127
0.024574 0.091181 -0.000043
0.007586 -0.014386 0.003734
-0.006227 -0.016366 -0.000806
-0.018520 0.010721 -0.001152
-0.005614 -0.006523 0.000516
0.015505 0.050749 -0.001965
0.001506 -0.006650 0.007258
0.026754 0.109163 0.001350
0.023803 -0.018331 -0.003079
-0.030180 -0.051015 -0.001729
0.002986 -0.036123 -0.002215
0.006218 -0.072510 0.000895
0.018897 0.038051 0.006891
-0.007701 -0.018126 -0.001753
-0.001690 -0.062561 -0.006887
0.011660 -0.071209 -0.003410
0.010037 0.028916 -0.006934
-0.040854 -0.044127 -0.004472
-0.007151 0.006083 0.005298
-0.041152 -0.005271 0.006320
0.035063 0.094313 -0.001846
0.000910 -0.069668 -0.006747
0.027141 -0.013711 0.004060
0.015530 0.060964 -0.002041
-0.045058 -0.048328 -0.006025
-0.038258 -0.007557 0.005412
0.019715 0.022827 0.001335
-0.015715 0.006679 -0.005952
-0.004162 -0.066386 0.005827
-0.003535 -0.052348 0.006596
0.029391 -0.019436 0.003204
0.020648 -0.060289 -0.005927
0.031429 -0.032246 -0.001055
-0.007591 -0.025578 0.001078
0.004106 -0.021047 -0.003363
0.020691 0.039784 0.005271
0.017662 -0.060102 -0.003242
0.032640 0.110858 -0.001535
-0.016766 -0.032157 -0.005187
-0.017761 -0.040215 -0.002018
-0.042975 -0.004310 0.000915
0.029723 -0.047217 0.000814
0.001474 -0.027646 0.007273
0.022232 0.080474 -0.001932
0.021087 -0.053648 -0.002067
0.013964 0.033217 0.005412
-0.020979 -0.013570 -0.000208
-0.018487 -0.019760 0.002925
0.026164 -0.037328 0.002782
-0.024106 -0.000959 -0.007110
-0.031381 -0.000897 -0.007384
-0.034027 -0.008984 0.003530
-0.016149 0.011770 0.002974
0.020438 0.049583 -0.001907
0.002764 -0.015679 0.007545
-0.052582 -0.018679 0.003152
-0.039724 -0.045541 -0.004995
0.017211 -0.065993 -0.006304
-0.021698 -0.007408 -0.004435
-0.019244 -0.021537 0.000100
0.002964 -0.071700 -0.000484
-0.049304 -0.020103 0.005267
-0.008023 -0.018781 -0.000599
0.013082 0.034944 -0.007446
0.009047 0.016652 -0.007085
-0.048028 -0.022984 -0.003675
0.000805 0.021165 0.005193
0.005449 0.005610 -0.007186
0.002348 -0.043066 0.003638
0.007247 0.007680 0.007381
0.027364 0.099057 0.002678
0.018711 0.018817 0.000733
0.028604 -0.024866 -0.005627
0.002308 0.010379 -0.006712
-0.011454 -0.022537 -0.003527
0.015460 0.040744 0.007440
-0.054567 -0.036722 0.000476
0.008122 0.020146 0.007414
0.037785 0.104739 -0.000024
0.013367 -0.007940 0.003779
0.027043 0.110193 0.001633
0.025273 0.072780 0.002809
-0.049662 -0.026042 0.004098
-0.009469 -0.058109 -0.000763
-0.030155 -0.009486 0.001008
-0.004954 -0.021917 -0.006594
0.021073 0.030307 -0.002478
0.016205 -0.008611 -0.000251
-0.034895 -0.052743 0.000041
0.020885 -0.062424 -0.005928
-0.053908 -0.024132 -0.005546
-0.050336 -0.013408 -0.002030
-0.041534 -0.003117 0.001923
0.005017 0.033963 -0.005767
0.024387 0.068950 -0.001974
0.015404 -0.065103 -0.006134
0.027489 0.086427 0.002774
0.020374 -0.065609 0.000811
0.001402 -0.017083 0.007402
0.026717 -0.027898 -0.004819
0.039145 0.116749 -0.001537
-0.004120 -0.004674 -0.003867
0.026048 0.055133 -0.001381
-0.052230 -0.043131 -0.003521
0.012004 0.055453 -0.000636
0.019789 0.051115 -0.001931
-0.015553 0.012017 -0.003988
-0.000514 -0.057749 -0.000155
-0.002320 0.001883 0.005675
0.007321 0.022179 0.007305
0.023770 -0.017443 -0.003922
-0.006246 0.018767 -0.003406
0.017131 0.067399 0.002667
0.006070 0.012124 0.007300
0.010625 0.024059 0.007503
0.023109 0.094746 0.002663
-0.045695 -0.037471 0.001435
-0.050953 -0.025554 0.005160
0.032142 0.115457 0.000293
0.002633 0.035216 -0.001035
-0.026509 -0.048792 -0.002297
-0.001574 0.018454 0.004731
0.024724 -0.022386 -0.001703
0.031309 -0.038634 0.001651
0.032273 0.118025 0.002627
-0.004615 -0.034577 -0.006428
-0.025118 0.007183 -0.000107
0.015804 0.017005 -0.005118
-0.015830 -0.018464 -0.004813
0.036997 0.100896 0.000314
-0.049940 -0.047455 0.000387
-0.003798 0.012464 -0.004978
0.012540 0.031584 0.005263
-0.034416 -0.049272 -0.005601
-0.044033 -0.041640 0.002800
0.014287 0.039350 -0.006032
-0.001843 -0.069080 0.004729
-0.009862 -0.043181 0.001591
0.007133 -0.071512 -0.005567
-0.026542 -0.043136 -0.004804
-0.033827 0.002360 -0.001143
0.006822 0.036646 0.005629
0.030894 -0.027478 -0.002560
0.020719 0.030990 -0.004384
0.001087 -0.047061 -0.000294
0.009225 0.038219 -0.006028
0.030018 0.119091 0.001422
-0.042963 -0.014777 0.003505
0.004877 0.028896 0.006455
0.010481 0.055073 0.000943
0.021466 0.032038 0.000782
-0.024785 0.007349 -0.001852
0.027305 0.073622 0.001741
0.009624 -0.010333 0.001805
0.004278 0.004205 0.007213
0.019261 0.042671 0.004567
0.016311 -0.000529 0.006962
-0.017372 -0.005246 0.005973
-0.000466 -0.029150 -0.005278
0.025110 0.095290 0.000317
0.020519 0.051914 -0.001927
0.025954 -0.038048 -0.003326
0.022642 -0.016597 0.000992
-0.000079 0.006241 0.006171
-0.042114 -0.042428 0.002498
0.022511 -0.016291 0.000873
0.031352 0.084977 0.000433
-0.029183 -0.043267 -0.004142
0.017639 0.011002 -0.004258
-0.006006 -0.000188 0.004922
-0.015968 -0.038750 -0.000012
0.027555 -0.050252 0.005509
0.012149 0.006433 -0.006232
-0.017939 -0.028232 0.003398
-0.033626 -0.041298 0.000434
0.015294 -0.062110 -0.000904
-0.037890 -0.007408 0.005392
-0.025293 -0.002166 0.006024
-0.021363 -0.013640 0.001413
0.004851 -0.035091 0.002298
-0.034528 -0.010090 -0.000432
0.006055 -0.011430 0.007046
0.021772 0.081867 -0.001219
0.020144 0.033564 -0.005364
0.026407 -0.030494 -0.003983
-0.018409 -0.030929 0.003514
0.030361 0.120153 0.001930
0.026078 0.058188 0.000329
-0.044780 -0.019201 0.001135
0.002709 0.011929 -0.006721
-0.003952 -0.030841 -0.006329
0.005007 0.042273 0.002069
0.020963 0.061723 -0.001999
0.023713 0.078638 -0.001969
-0.000075 0.022840 -0.004805
0.017684 -0.008703 -0.002466
-0.003383 -0.020825 0.004799
0.021631 0.066658 0.002776
0.015237 0.008874 0.006428
-0.047643 -0.026573 -0.000509
0.020334 0.001221 0.002925
-0.027965 -0.006386 -0.003781
0.036405 0.097362 0.000072
-0.031042 -0.007975 0.003935
0.004099 -0.012449 0.007602
0.032156 0.118647 0.000284
-0.013333 0.002935 -0.006087
-0.031362 -0.047426 0.003649
0.004027 -0.028190 -0.002651
0.023057 -0.048393 0.000544
0.022431 -0.060312 -0.005786
-0.002695 -0.005988 0.006226
-0.006804 -0.034497 -0.006896
0.033459 0.098515 0.000596
0.032534 0.086558 0.000429
-0.010567 -0.019817 -0.002992
0.008181 0.012428 0.007408
0.020767 0.028241 0.002360
0.018638 0.022754 -0.004486
0.004068 0.038569 -0.004452
-0.031198 0.003853 -0.002017
0.030251 -0.045329 0.001721
0.022141 -0.015347 -0.000861
0.003483 -0.064775 -0.002433
-0.044033 -0.050108 -0.004707
0.005643 -0.011745 -0.003936
0.018612 0.014400 -0.000236
0.021643 -0.003082 -0.004970
0.024630 -0.022396 -0.000411
0.014878 0.045242 -0.004245
0.019147 0.060045 0.002764
-0.005868 -0.056288 -0.007550
-0.000439 -0.054078 0.002002
0.000599 0.022422 -0.005017
-0.009859 -0.013707 -0.001772
-0.015018 0.005779 0.005794
0.009722 0.018391 0.007421
-0.023331 -0.005631 0.005393
0.020966 0.030022 -0.002724
-0.029643 -0.050590 -0.002221
0.026828 -0.054087 -0.003242
0.025643 -0.026480 -0.002678
-0.029191 0.004996 -0.001651
0.018659 0.038850 0.007079
-0.018603 -0.002431 0.006265
0.012384 0.004027 -0.006391
0.030965 -0.025305 0.000705
0.007013 -0.002170 0.007503
-0.005011 -0.006633 0.003331
0.039504 0.115234 0.000203
-0.025409 -0.007173 -0.003402
0.009197 -0.002977 -0.006936
-0.031024 -0.004480 -0.005657
0.018637 0.003579 0.005741
0.015214 0.003211 0.006844
-0.003498 0.022211 -0.001637
0.027834 -0.016115 0.005857
0.013216 -0.005185 -0.005010
-0.040695 -0.006582 -0.007367
0.017836 -0.058853 0.000990
0.021740 0.042305 0.001161
-0.009713 -0.013581 0.005051
-0.010253 -0.010935 0.005419
0.009657 0.012357 0.007362
-0.009807 -0.019483 0.004440
-0.003025 -0.047186 0.006947
-0.031204 -0.040637 0.000640
0.020542 0.065453 0.002750
-0.002453 -0.068672 -0.001623
0.012938 0.001989 0.007202
0.022460 0.063846 0.002828
0.027330 0.099800 0.002679
0.017205 0.043673 0.006088
-0.014537 -0.016812 -0.005840
0.006215 -0.019643 0.004936
0.019024 0.023768 0.005079
-0.010571 -0.047354 0.000225
0.013643 0.000054 -0.006534
-0.013456 -0.014274 0.005365
-0.020244 -0.015712 0.000981
-0.002895 -0.038254 0.007131
-0.036633 -0.052504 -0.001806
-0.025485 -0.006939 -0.003572
0.012972 -0.067640 -0.006670
0.030995 -0.035830 -0.003243
0.018524 0.017228 0.000182
0.002147 -0.071328 0.004430
0.001352 -0.036015 0.006578
-0.001689 -0.018445 0.006057
-0.025203 -0.039761 0.002927
0.011534 0.038712 0.005129
0.004674 0.041404 0.000239
0.032696 0.101010 -0.001862
-0.032280 -0.041668 -0.002329
-0.000384 0.001975 -0.006691
-0.038703 -0.007092 -0.006671
0.004707 -0.014568 0.007252
0.023025 0.060942 0.002849
0.008629 -0.004039 0.007586
0.005668 -0.008440 -0.005348
-0.011250 -0.049253 -0.002969
-0.008082 -0.020943 0.000057
-0.014840 0.012448 0.003393
-0.010378 0.014358 -0.005045
-0.005639 -0.031778 -0.006701
0.030605 0.109627 0.002670
-0.002354 -0.044482 -0.005135
0.016786 0.052671 -0.001963
-0.028451 0.005404 -0.001080
-0.031433 0.003730 -0.001789
0.026982 -0.016992 0.006409
-0.011610 0.013596 -0.005094
-0.005462 -0.009780 -0.002262
0.001122 0.001396 -0.006919
0.005654 0.003447 0.007316
-0.021910 -0.045213 0.004541
-0.046965 -0.010962 0.005991
0.020200 0.025548 0.002357
0.031666 -0.031534 0.002191
-0.011021 0.014592 0.004583
0.026954 -0.025729 0.005284
-0.031595 0.003638 -0.000237
-0.030313 -0.008170 -0.002114
-0.005511 -0.008918 -0.002836
0.003480 -0.072006 0.001593
-0.018293 -0.042905 0.003016
-0.013167 -0.003233 -0.006318
0.018418 -0.010049 0.002916
-0.003041 0.013456 0.004769
0.003968 -0.067698 -0.007252
0.004575 0.007241 0.007187
-0.023526 -0.047720 0.003852
0.004473 -0.007221 -0.006303
0.016403 0.045368 0.002831
0.018070 0.079138 0.002599
0.017085 0.016435 -0.003171
0.015512 0.016920 0.006229
-0.005962 -0.030332 0.004190
-0.016240 -0.038631 -0.000859
-0.041803 -0.003393 -0.003395
0.012702 -0.000782 0.007342
-0.023814 -0.010802 -0.000055
0.029370 0.073548 -0.001905
0.026419 0.108303 0.001628
0.008375 -0.065825 0.001230
0.024721 -0.022219 0.002441
0.024977 0.101974 0.002631
0.027536 0.098386 -0.000723
0.037381 0.120712 0.000905
0.024469 0.075657 0.002775
0.018417 0.013564 -0.001571
0.021029 0.054882 -0.001956
0.033485 0.099573 0.000658
-0.011288 -0.020348 0.005214
-0.000056 -0.017831 -0.005649
-0.005202 -0.037032 -0.006553
0.020499 0.047861 0.002713
0.014733 -0.063043 -0.002272
-0.009318 -0.033063 0.000644
0.030053 0.088870 0.002427
0.008701 -0.072154 -0.001362
-0.010404 -0.023914 0.002734
-0.045598 -0.045490 0.004219
0.019777 0.042374 -0.003833
-0.038873 -0.000986 -0.002585
-0.045770 -0.049344 0.004393
0.026127 -0.027292 0.003506
-0.008547 -0.042445 0.003653
0.023351 0.094631 0.000294
0.022973 -0.004380 0.000025
-0.002688 -0.053894 0.005826
0.027605 -0.034327 -0.005238
0.020100 0.002110 0.001770
-0.041603 -0.050852 0.004133
0.002214 -0.031197 0.006717
-0.027412 -0.009371 0.002722
0.027535 -0.030919 -0.005268
-0.009152 -0.038464 0.001980
-0.008271 -0.021275 -0.005575
0.010805 0.010293 -0.006282
0.028846 0.114777 0.002476
0.019330 0.005284 0.001043
0.020246 0.026668 -0.000375
0.029313 -0.037159 -0.005386
0.027425 -0.053580 -0.000465
-0.051841 -0.044468 0.002797
0.028172 0.100945 -0.000131
-0.017716 -0.041779 0.000995
0.010753 -0.068368 -0.006861
0.016237 0.002510 -0.005749
0.026361 0.101157 0.000301
0.010700 -0.071160 -0.004987
-0.021712 -0.010159 0.004262
0.008071 0.027081 0.007378
0.007170 -0.015923 -0.000053
0.008715 0.011380 0.007402
0.038906 0.120754 -0.001591
0.027352 0.064245 -0.001955
0.005721 -0.029564 0.000630
-0.000559 0.023896 0.004786
0.021741 -0.009901 -0.005722
0.024772 -0.019439 0.004907
-0.016053 -0.015035 0.004713
0.000983 -0.006754 0.007173
-0.009894 -0.006299 0.005546
0.032403 0.080149 0.000268
-0.031232 -0.002816 0.006042
0.036208 0.123537 0.002525
0.006445 -0.066886 -0.005457
0.024547 -0.022088 -0.000202
-0.017569 -0.005768 -0.006802
-0.023414 0.001477 0.006371
-0.013909 -0.023509 -0.005506
0.030055 -0.023923 0.005965
0.020991 0.070849 -0.001993
-0.044929 -0.042539 0.003389
-0.007929 0.009243 0.005335
0.016780 0.076892 0.001320
-0.006559 -0.020395 -0.006246
0.004149 0.040009 -0.002828
-0.020622 0.009101 0.004122
0.005720 -0.065502 0.000707
0.002349 0.032940 0.003101
0.005389 0.037356 -0.005608
-0.000094 0.002357 0.006425
0.011776 0.028866 0.006979
0.020125 0.068998 0.002746
-0.008039 -0.058626 -0.007541
-0.006331 -0.019504 -0.006215
0.010588 0.049928 0.002531
-0.002955 -0.038497 0.007125
-0.052491 -0.041898 -0.004817
-0.041624 -0.049033 0.004026
-0.033350 0.001463 0.006231
-0.019206 -0.001023 -0.006895
-0.016151 0.007194 0.005678
0.000467 -0.017847 0.007258
-0.006070 -0.048158 -0.006976
-0.007111 -0.016543 -0.002974
-0.017351 -0.020375 -0.003248
-0.043504 -0.008431 0.006143
-0.015379 -0.009102 0.005655
-0.052130 -0.034058 0.005254
-0.027144 -0.045915 0.003965
0.007604 0.015913 -0.007128
0.030995 -0.036594 -0.003048
-0.034743 -0.041469 0.000383
0.021262 -0.008212 0.006689
-0.023344 -0.035613 0.002152
0.029864 0.116874 0.002616
-0.000366 0.025880 0.001570
0.011266 0.034315 -0.007234
-0.009101 -0.022984 -0.004147
0.024280 0.056331 0.000902
0.028920 0.104242 0.002681
0.023778 0.068892 -0.001995
-0.008970 -0.038154 -0.006856
0.021421 0.032856 0.003821
-0.035513 -0.008769 0.004109
0.018501 0.028422 0.006143
-0.004829 0.015702 0.004969
0.029198 0.085681 -0.001944
-0.014094 -0.018408 0.004897
0.006209 0.012749 0.007311
-0.025118 -0.036046 0.000123
-0.036401 -0.010971 0.002018
0.014439 0.008168 0.006693
-0.005406 -0.006672 0.001405
-0.018340 -0.027748 -0.003434
0.000176 -0.049147 -0.001488
-0.035549 -0.052920 0.002560
0.007896 0.013186 -0.007114
-0.055007 -0.030783 -0.003266
-0.042164 -0.007110 -0.007310
0.000733 -0.070531 -0.003038
0.025842 -0.030893 -0.001365
0.009030 0.002617 -0.006855
0.005487 0.009773 -0.007141
0.021640 0.036086 -0.004778
0.030677 0.093664 0.002505
-0.040099 -0.052672 0.000023
0.018898 0.054995 0.002769
0.025012 0.082654 -0.001972
0.015217 0.025288 -0.006381
0.005593 -0.020580 0.005629
-0.008098 -0.032477 0.002166
-0.032436 0.000018 -0.007360
0.002205 0.005736 -0.006971
0.019943 0.073261 0.002689
-0.026489 -0.039478 0.002298
0.025448 0.089489 0.002712
0.005035 -0.018779 -0.002775
0.020484 0.026619 0.001797
0.013848 0.067058 0.002034
-0.008000 -0.002282 0.005332
0.011851 0.046059 0.002837
-0.016664 -0.006811 0.005816
0.019924 0.039721 -0.006230
0.029036 -0.038648 0.005642
-0.019362 -0.025483 0.001960
-0.041764 -0.049494 0.004090
0.028274 -0.017317 0.005861
0.031090 -0.038520 -0.001317
-0.016054 -0.034999 -0.004125
-0.018896 -0.004779 -0.006786
0.005806 -0.029074 0.000671
-0.004861 -0.007673 0.000840
0.011519 0.041159 -0.006696
-0.003164 0.009712 -0.004951
-0.018768 0.008525 -0.005834
0.003491 0.032200 -0.005290
0.007309 0.007922 0.007381
0.001985 0.031957 0.001764
0.023104 -0.004906 -0.001861
-0.023111 0.003535 -0.006677
-0.053031 -0.026017 -0.006776
0.027742 -0.046895 0.005536
0.035597 0.122109 0.000235
0.023938 0.100128 0.001188
-0.010836 -0.052346 -0.003195
-0.001531 -0.059036 -0.004457
0.021783 0.041309 -0.001636
0.029434 -0.044400 -0.004663
0.021749 0.047560 -0.001886
-0.012959 -0.002208 0.005996
-0.006646 0.018536 -0.002873
-0.009202 0.016552 0.001525
0.003042 -0.067230 -0.007263
0.018599 0.016835 0.002070
0.018136 -0.067745 0.004148
0.026475 -0.011907 0.001953
-0.033916 -0.004298 0.005865
