-0.042396 -0.034163 0.012025
-0.044647 -0.033510 -0.021959
0.009616 -0.044961 -0.005686
-0.012913 -0.003176 0.084864
0.040888 -0.013338 -0.119338
0.034308 -0.038716 0.066979
0.048809 0.026378 -0.017769
-0.016430 0.022409 0.084991
0.027030 0.010165 0.085476
-0.046479 0.003786 -0.078629
0.038593 0.037646 -0.051570
-0.046346 -0.033799 0.079118
0.049593 0.032392 0.022626
0.036155 -0.031161 0.038503
0.043963 0.001639 -0.104573
-0.049629 -0.008324 0.044940
0.028187 0.029774 -0.119895
0.014118 -0.001229 0.085004
0.050390 0.030921 -0.107627
0.034445 -0.040755 -0.002499
0.049374 0.032265 0.053683
-0.002825 0.047417 -0.079502
-0.015846 0.050437 -0.119233
0.047310 0.016694 -0.114831
-0.043631 -0.001063 -0.119478
-0.033982 0.053524 -0.049110
-0.003194 -0.042560 0.040210
-0.050017 -0.014787 -0.069720
-0.051710 -0.026150 -0.106286
0.005812 -0.044518 0.046657
0.027911 0.010485 0.085436
-0.014076 -0.019615 0.085049
-0.046164 0.009353 0.047325
0.008934 -0.044387 -0.101696
-0.052271 -0.027806 -0.056622
0.004633 0.040857 0.084983
0.034161 -0.042457 -0.021673
-0.035286 0.052424 0.037850
0.034717 -0.041611 -0.064343
0.049313 0.033337 0.026279
0.035534 -0.036973 -0.049109
-0.005888 0.047684 0.021025
-0.031782 0.039066 0.084555
-0.052378 -0.028402 -0.035866
0.034055 -0.040452 0.056461
-0.027433 -0.037164 0.002925
0.010342 0.016893 0.084288
0.016708 -0.025458 0.085252
-0.031136 -0.036285 -0.026300
-0.019458 0.030243 0.083988
-0.026659 0.017526 0.084610
-0.001188 0.021751 0.084010
0.032458 -0.017269 0.085352
-0.040646 -0.019764 -0.119659
-0.012205 -0.040112 -0.094022
-0.051426 -0.030531 -0.052647
-0.034433 0.017101 0.084712
0.037927 0.037981 -0.107002
-0.012571 0.049364 -0.009673
0.003269 -0.043561 -0.017361
0.035520 -0.033480 0.083441
-0.035163 0.052605 0.003166
0.003501 -0.043898 0.029420
-0.050723 -0.014426 0.034908
0.036418 0.030524 0.084474
0.037207 0.038151 -0.090376
-0.047193 0.003958 0.043275
0.029259 -0.048882 0.051482
0.043212 0.016808 0.085422
-0.048635 -0.003986 0.023017
0.008807 -0.044791 -0.000095
-0.007337 0.047936 0.032309
0.016855 -0.046688 0.035915
-0.033218 0.053932 -0.011058
-0.050339 -0.013311 -0.002454
0.040554 -0.007840 0.072613
0.029308 -0.048421 -0.093540
-0.017266 -0.010543 -0.119478
-0.052822 -0.028463 0.047633
0.049424 0.028379 -0.044254
0.026760 -0.008520 0.085119
0.041279 -0.004754 0.074673
-0.003015 -0.042259 -0.024788
-0.027966 -0.012171 0.084833
0.047570 0.019849 -0.050792
-0.048739 -0.009914 -0.114197
0.036997 -0.004758 0.085536
0.000622 -0.023489 0.084933
-0.045740 -0.001596 0.084716
-0.035278 0.052416 0.036486
0.014378 0.042864 0.044699
0.040390 0.037463 -0.096034
0.049993 0.032118 -0.056074
-0.005341 0.047793 -0.023649
-0.051587 -0.019740 -0.000812
-0.009428 -0.040682 -0.095585
0.040913 -0.010814 -0.032163
-0.029403 0.015320 0.084550
-0.035231 -0.035242 -0.085205
0.047797 0.022796 0.048583
0.048532 0.034816 0.028940
-0.044976 -0.017143 0.084661
0.011802 -0.044978 -0.086150
-0.017727 -0.039667 0.073763
0.028713 -0.048522 -0.073716
0.047780 0.035225 0.026724
-0.031248 0.041085 0.084558
0.036999 0.026897 0.084552
-0.041994 0.026597 -0.058361
0.035704 -0.032670 0.060035
-0.044215 0.017752 -0.008365
-0.012236 -0.040354 -0.017150
0.039573 0.001450 -0.119764
-0.033207 0.053687 -0.083002
-0.032464 0.053910 -0.063199
0.005843 0.045362 -0.119441
-0.007544 -0.040280 -0.119957
-0.046976 0.000575 -0.092961
-0.051447 -0.031121 -0.011365
0.029446 -0.014201 0.085232
-0.046368 0.006221 -0.032343
0.040958 -0.012013 -0.112880
-0.025486 -0.037836 0.035463
-0.008083 -0.041755 0.078553
-0.022843 0.007911 0.084589
-0.036384 0.049791 -0.020577
-0.036065 0.049003 -0.117187
0.049552 0.033489 -0.031798
-0.035672 0.051846 0.003228
0.043878 0.003803 0.004752
0.030301 -0.048237 -0.098211
-0.015851 -0.039204 -0.102889
-0.051069 -0.017185 -0.010584
-0.040717 -0.034642 0.027529
0.032696 -0.006344 -0.119655
0.024626 -0.047846 -0.045656
-0.045059 -0.033206 -0.099360
-0.035009 0.052817 0.000594
-0.020900 0.019653 0.084584
0.031575 -0.016604 0.085164
0.024510 0.027896 0.085136
0.021099 0.019818 0.084577
-0.036723 -0.035515 0.046410
-0.034993 0.035500 -0.119910
-0.014676 0.035588 0.084352
-0.033816 0.002152 0.084801
-0.045650 0.010123 -0.028466
-0.052063 -0.019925 0.076973
-0.051005 -0.014671 0.070550
0.030726 0.000110 0.085511
0.032326 -0.047166 -0.055985
-0.025182 -0.037691 0.006444
0.049861 0.028205 -0.111148
-0.024711 -0.019240 0.084894
0.048886 0.034603 0.001335
-0.012012 0.048931 0.055602
-0.022269 -0.037865 -0.098187
-0.046056 -0.033780 0.067614
0.047399 0.018167 -0.087088
-0.038857 -0.020929 -0.119688
-0.049361 -0.010994 0.084579
0.032568 0.038662 0.018933
-0.051321 -0.031068 -0.032647
0.007372 -0.044926 0.073116
0.007724 -0.044510 -0.024352
0.027106 -0.048163 -0.086604
-0.001609 0.046998 -0.057825
0.018754 -0.047296 0.074595
-0.044246 0.016907 -0.035091
0.047742 0.035657 -0.026487
-0.003926 -0.041652 -0.115019
0.032344 -0.046432 0.042202
-0.042011 0.026510 -0.059357
0.031110 -0.047946 0.035876
-0.052803 -0.024520 0.062985
0.003534 -0.043419 -0.060600
-0.046223 0.006852 -0.034731
-0.032967 0.040383 0.084421
0.027837 0.039471 0.084202
-0.025984 -0.038015 0.078158
0.041580 -0.007800 -0.060059
-0.001117 -0.042294 -0.107244
-0.024033 0.051768 0.030360
-0.013409 0.049518 0.012148
0.004396 0.035318 0.084301
0.043040 -0.000708 -0.033796
-0.017808 0.034001 0.084876
0.012338 0.001049 0.085207
0.029638 -0.016507 0.085357
-0.045767 -0.033811 0.083595
-0.010229 -0.040785 -0.002885
-0.017517 0.046304 -0.119807
-0.028188 0.042598 -0.119850
-0.051057 -0.030785 -0.067772
-0.015106 -0.039434 -0.062732
-0.036725 -0.034711 -0.118196
-0.051516 -0.016788 0.081366
-0.001919 -0.042186 -0.101461
-0.051438 -0.024593 -0.105582
-0.010474 -0.040838 0.016182
0.019818 0.020629 -0.119904
-0.010710 0.038785 -0.119816
-0.044165 0.015558 -0.069929
0.046114 0.019303 -0.119983
-0.044021 0.003760 0.084664
0.024573 -0.047638 -0.085228
0.047020 0.016213 -0.093218
-0.048091 -0.001061 0.020207
-0.049764 -0.032202 -0.055441
-0.002117 0.046992 0.007132
0.047380 0.021828 0.076893
0.037665 -0.022900 0.084730
0.037291 -0.028811 -0.072571
-0.047914 0.000338 0.041287
0.005750 -0.021802 0.085157
-0.052385 -0.030179 0.053687
0.024206 -0.047716 -0.056472
0.037078 -0.012100 -0.119664
0.033417 -0.045823 -0.114378
0.022424 -0.047700 0.013979
-0.001306 -0.027587 0.084919
0.007832 -0.042555 0.085158
0.015133 -0.045545 -0.109966
0.041563 -0.007484 -0.029120
0.003195 -0.003530 0.085185
0.014603 0.043325 -0.079258
-0.049203 -0.005647 0.064292
-0.017221 0.016840 0.084948
-0.021345 -0.038648 0.025740
-0.002227 0.046608 0.073181
-0.037158 0.027741 0.084416
0.023737 0.002851 0.085050
-0.049526 -0.012606 -0.085367
0.041338 -0.004941 0.072327
-0.001703 -0.043031 0.080948
-0.034295 0.053153 -0.071989
0.042771 0.036423 0.044465
-0.012419 -0.039957 -0.077340
0.033679 -0.045397 -0.114215
-0.003615 -0.001018 0.085004
0.040133 -0.014709 -0.044280
-0.012983 -0.021654 0.084958
0.026664 -0.048809 0.058208
0.028973 -0.048987 0.065901
0.022163 0.040844 0.078798
-0.047042 0.004252 0.031206
0.037053 -0.029115 -0.039620
-0.023930 -0.037673 -0.044954
-0.046933 0.006661 0.080990
0.005248 -0.006881 0.084927
-0.002092 -0.042489 -0.019211
-0.004011 0.046948 0.082522
0.046388 0.035566 0.069636
0.047137 0.035557 0.008161
-0.053261 -0.027081 0.073173
0.037482 -0.026133 -0.009903
0.036273 -0.035396 -0.115675
0.010466 -0.045202 0.006011
0.030569 -0.032453 -0.119653
-0.007539 0.048453 -0.086195
0.049411 0.028067 -0.059098
-0.033874 -0.035524 -0.054845
0.032651 -0.046353 0.013638
0.021116 -0.038135 -0.119769
0.044986 0.006501 -0.105049
-0.030272 0.053234 0.031600
0.047822 0.018991 -0.109795
0.036769 -0.031330 -0.068714
-0.028338 0.044674 0.084139
-0.035208 0.052510 0.038171
0.027355 0.039915 0.018617
-0.004976 0.047593 -0.100057
0.036667 -0.011893 -0.119664
-0.037405 0.045531 -0.067619
-0.018292 0.032924 0.084599
0.040042 -0.015053 -0.033125
0.046636 0.015540 -0.056241
-0.000507 0.012185 0.085065
0.049246 0.028123 0.003745
0.002220 -0.008544 0.085036
0.019451 -0.047398 0.065887
-0.007475 0.011516 0.084597
0.007048 0.044534 0.048387
0.048798 0.034486 0.031675
-0.007033 -0.041959 0.071020
-0.050467 -0.031154 -0.090514
-0.006737 0.048040 -0.098426
-0.050958 -0.014517 0.065010
-0.052615 -0.025440 -0.000162
0.008104 0.040082 -0.119834
0.034758 -0.039404 -0.007749
-0.013040 -0.032973 0.085029
-0.049845 -0.016287 -0.116444
-0.015383 -0.038888 -0.119755
0.014923 0.043267 -0.082785
0.032824 -0.046089 0.013633
0.009748 -0.044598 -0.089525
0.035896 0.031266 0.085017
-0.043380 -0.033497 -0.106797
-0.025900 0.052569 -0.073897
-0.016394 -0.036034 0.085021
0.011760 -0.045803 0.064672
0.015702 -0.045742 -0.095748
0.009174 0.008363 0.084957
0.005029 0.044917 0.072365
-0.027996 0.019477 -0.119721
0.031774 0.021749 0.085618
-0.010836 -0.040328 -0.079431
0.023339 0.040663 0.064764
0.037997 -0.026150 -0.114342
0.018096 0.041819 0.076752
0.038628 0.033061 0.085079
0.033666 -0.018252 0.085269
-0.006288 0.028887 0.084083
-0.018494 -0.038923 0.082435
-0.049605 -0.014502 -0.108907
-0.003640 0.016850 0.085129
0.033529 -0.042663 0.062964
0.006545 0.018126 0.085150
-0.020430 0.051161 -0.001561
0.036858 0.037696 0.044824
0.045639 0.014147 0.073731
-0.034144 0.053461 0.017642
-0.049759 -0.009996 0.001068
0.040187 -0.014353 -0.043229
-0.048968 -0.032283 -0.085797
-0.018334 -0.000096 0.084669
0.003684 -0.009013 0.084542
-0.039322 0.036282 -0.084496
0.031087 0.038967 0.031080
0.022201 -0.047054 -0.119149
0.028638 0.033090 0.085182
-0.017549 -0.039114 -0.027159
-0.035459 0.046586 0.084434
0.036772 -0.029127 0.008192
0.019308 0.030766 0.084674
-0.006216 -0.041129 -0.117759
-0.042130 -0.034378 0.031174
0.050346 0.032300 -0.106670
-0.019025 -0.037365 -0.119955
-0.025996 -0.012950 0.084925
0.031521 -0.047296 0.070627
0.027276 0.040442 -0.112416
-0.016671 0.022325 0.084958
-0.033298 0.053834 0.004604
0.001993 -0.043823 0.079659
0.002623 -0.008645 -0.119507
0.042134 0.036892 -0.019312
0.040631 -0.012025 -0.027460
0.010155 0.044392 -0.088980
-0.018412 0.050746 -0.045762
0.033032 0.029730 0.085373
0.028437 -0.048398 -0.100992
0.046743 0.014174 -0.112839
-0.051582 -0.028191 -0.111063
0.038155 -0.023740 -0.034803
0.043061 -0.001044 -0.119900
-0.033770 -0.019566 0.084801
-0.046451 -0.033652 0.058638
0.030267 -0.044603 0.085259
-0.023683 -0.019005 0.084931
-0.018178 0.046628 -0.119801
-0.049654 -0.012347 -0.062802
0.041174 -0.009855 -0.060461
0.047053 0.014832 -0.118724
-0.033600 -0.035581 -0.055895
-0.036376 0.049795 0.034051
0.033482 -0.044282 0.017894
-0.000997 0.046870 -0.065120
-0.027260 0.017379 0.084400
-0.052658 -0.028471 0.016033
0.036390 0.038348 -0.109142
0.013260 0.043639 -0.103123
0.049665 0.030236 -0.016459
-0.023936 -0.037303 -0.117956
0.004550 0.032347 0.084300
0.031305 0.000212 0.085465
0.016657 0.007154 0.085341
-0.041831 -0.012751 0.084694
0.035165 -0.040336 -0.095817
-0.030541 0.053554 -0.021999
0.032386 -0.046733 0.008097
-0.034570 0.053038 -0.060433
0.037053 -0.029099 -0.039198
0.046752 0.013484 -0.118692
0.001940 0.005150 0.085123
-0.015871 0.049704 0.074960
0.031464 0.039485 -0.082003
0.034465 0.038789 -0.117784
0.048815 0.034697 0.000794
0.002589 -0.010181 0.084816
0.039457 -0.017493 -0.018217
-0.052880 -0.026211 0.029541
-0.048960 -0.011762 -0.119103
-0.045350 0.007505 -0.118816
-0.010151 -0.004351 0.085108
0.045472 0.035829 0.048528
-0.040450 0.014382 0.084563
0.041908 -0.004765 0.015649
-0.051644 -0.025282 -0.099389
-0.042990 0.021604 -0.069313
-0.029961 0.053420 -0.034284
0.023305 0.034580 0.085026
0.026811 0.033746 0.085273
0.008600 0.041586 0.085189
0.029004 0.017231 0.085054
-0.044802 0.014893 -0.012276
-0.050384 -0.012728 0.027815
-0.013705 -0.040033 -0.018316
0.035213 0.034286 0.085241
0.020230 -0.041194 0.085209
-0.012142 0.023086 0.083033
0.024772 0.040361 0.061519
0.018341 0.012708 0.085341
0.018355 0.026299 0.085302
-0.020972 -0.038591 0.011032
0.031620 -0.047623 -0.003730
-0.048907 -0.032625 -0.008118
0.047297 0.019494 0.022816
0.030335 -0.048285 -0.104571
0.040166 -0.009841 0.072471
-0.020661 0.021370 -0.119647
-0.031713 -0.024864 -0.119711
-0.037542 0.045627 -0.005172
-0.047766 -0.004703 0.084598
-0.041749 0.028586 -0.010630
-0.052360 -0.026452 -0.051471
-0.049649 -0.008074 0.055878
-0.034904 0.052211 -0.111829
0.037732 -0.024699 0.000567
-0.048040 -0.003336 0.084627
-0.048791 -0.032345 0.084301
0.048169 0.023047 -0.026500
0.048906 0.034143 0.040871
-0.036579 0.048311 -0.079755
-0.007100 0.041518 0.084548
-0.009833 -0.041235 0.078552
-0.033540 0.053708 0.080519
0.033525 0.013735 0.084802
-0.023981 -0.037960 0.005660
-0.018198 -0.039110 0.004205
-0.049528 -0.006935 0.074998
0.005222 0.045398 -0.119613
-0.033753 -0.035466 -0.077678
0.029936 -0.048431 -0.119122
0.049305 0.031362 0.081830
0.035021 -0.002906 -0.119689
0.049661 0.031701 0.033732
0.044659 0.036147 0.002993
0.037642 0.037863 -0.019555
-0.011686 0.001667 0.084735
-0.037090 0.047405 -0.048650
-0.043124 0.004653 0.084705
0.029252 -0.048867 0.071572
0.036148 -0.035919 -0.107901
-0.036426 0.008985 0.084855
0.044803 0.005669 -0.101198
0.029644 0.019473 0.084868
0.002265 0.001010 0.084849
-0.045833 0.008615 -0.043081
0.049581 0.033721 -0.050337
0.026340 -0.048426 -0.000522
0.032946 -0.046514 -0.117415
-0.046873 0.002717 -0.055091
-0.024165 -0.038257 0.054620
0.042655 -0.004195 -0.109485
0.032435 -0.046009 0.063519
0.007424 -0.044983 0.075804
0.029797 0.039260 0.023919
-0.046325 0.004796 -0.075382
0.036606 -0.033105 -0.104186
-0.015616 0.004674 0.084894
0.032803 -0.046457 -0.044049
-0.028205 -0.037516 0.078746
0.034338 -0.043847 -0.105132
-0.034207 0.053422 0.018691
0.048889 0.033339 0.082955
-0.046974 -0.033022 -0.020453
0.044457 0.005425 -0.049391
0.042701 -0.002194 -0.031337
-0.035613 0.052125 0.061796
-0.049346 -0.006539 0.061231
0.036597 -0.032471 -0.072473
0.036274 -0.031341 0.008495
-0.037581 -0.034628 -0.109835
-0.026628 0.051531 -0.119822
0.028798 -0.007765 0.085390
0.028953 -0.048741 -0.039185
0.015842 0.001619 0.085220
-0.052728 -0.027994 0.031236
-0.020297 0.009460 0.084703
-0.052316 -0.029711 0.019387
-0.015026 0.041213 0.084914
0.032729 -0.046253 0.006759
0.001095 -0.042813 -0.107100
-0.018402 -0.038822 -0.048721
-0.027459 -0.037138 0.001192
-0.001645 -0.042683 -0.002810
0.049299 0.029797 0.062303
-0.036390 0.049741 0.037053
-0.030753 0.053575 0.003325
0.009340 -0.044701 -0.040897
-0.050741 -0.015322 -0.002909
-0.040703 -0.034768 0.047314
0.029555 -0.048415 -0.089709
-0.008335 0.045741 0.084654
0.016880 -0.001650 0.085219
0.010641 -0.044791 -0.066631
0.049792 0.032440 -0.023295
0.029432 -0.048785 0.072002
-0.029783 0.053471 -0.061679
-0.000024 -0.005794 0.084694
0.045924 0.012629 -0.030117
0.030804 -0.047794 0.075185
0.027319 0.040249 -0.051866
0.046321 0.014687 -0.013883
-0.014671 -0.009443 0.085062
0.033233 -0.046074 -0.079889
0.015331 0.043066 -0.115895
-0.052772 -0.028348 0.026362
0.047003 0.016173 -0.090355
0.033576 -0.042639 0.052511
0.048751 0.026940 0.054985
0.038226 -0.023090 -0.017062
0.007596 -0.008334 0.085248
0.001753 -0.042773 -0.119529
-0.049911 -0.010196 0.024228
-0.025820 -0.036979 -0.114488
-0.035326 -0.035718 0.026307
0.049686 0.030818 0.030483
0.034853 -0.042067 -0.110953
0.047508 0.018154 -0.098147
0.037267 -0.029928 -0.101948
0.031722 -0.047622 -0.081788
0.020697 -0.043740 0.085227
0.034120 -0.044452 -0.095559
-0.001657 0.046511 0.067059
-0.003036 0.046916 0.040838
0.049323 0.027983 -0.038829
0.029005 -0.048699 -0.042024
0.024864 -0.048384 0.046246
-0.004370 0.023599 0.085118
0.020700 0.007635 0.085307
0.006516 -0.044228 -0.037060
-0.029011 -0.037232 0.080724
0.034794 -0.042284 -0.108013
0.038289 -0.024130 -0.071796
0.041641 -0.006743 -0.058510
0.028763 0.015532 0.085484
0.031416 -0.047824 -0.079259
-0.019766 -0.021981 -0.119559
0.033244 0.018639 0.085243
0.033848 -0.044659 -0.054235
-0.036431 0.048476 -0.083652
-0.046346 0.007128 -0.002340
0.042995 0.004153 0.074621
-0.033657 0.053285 -0.089623
0.037418 -0.029773 -0.118314
-0.043509 -0.033653 -0.044191
0.025557 0.039945 0.084679
0.049908 0.031769 -0.033081
0.035264 -0.035417 0.026539
-0.034939 0.015424 0.084845
-0.046980 -0.032534 -0.116281
-0.044091 -0.016060 -0.119658
0.014648 0.023784 0.085127
-0.003304 0.046976 0.042788
0.004378 0.045534 -0.009463
-0.017116 -0.039049 -0.054025
-0.003284 -0.042458 0.028045
-0.019663 -0.007423 0.084929
0.048432 0.023088 -0.082328
0.040971 0.036827 0.015988
-0.035111 -0.035891 0.046658
-0.042544 -0.034394 0.050196
-0.047235 0.005175 0.082770
-0.000224 -0.002498 0.085040
0.004677 0.045655 -0.097058
-0.034073 0.052998 -0.092774
0.003736 -0.043318 -0.105879
0.020955 0.021640 0.085272
0.002645 -0.012629 0.084801
-0.051585 -0.019670 0.005270
0.048288 0.035101 0.010833
0.042026 -0.006127 -0.080024
-0.047468 0.002679 0.046184
-0.011342 0.043896 0.084426
0.026106 -0.014019 -0.119604
-0.052339 -0.024807 -0.024346
0.035137 -0.034543 0.077830
-0.046821 0.003731 -0.039507
-0.052293 -0.029835 0.023539
-0.005560 -0.041573 -0.064070
0.010009 -0.044530 -0.110206
0.027974 0.040263 -0.100059
-0.036813 0.048261 -0.014348
0.032082 -0.047150 0.009727
0.035380 0.038514 -0.070185
-0.040041 -0.034356 -0.046077
-0.044704 0.016852 0.057290
-0.049165 -0.032805 0.043155
0.038644 -0.022581 -0.084790
-0.015670 -0.039587 -0.021167
-0.032305 0.006229 0.084369
-0.038641 0.041415 0.042899
0.033660 -0.042744 0.037578
0.009408 -0.044473 -0.097750
-0.019350 -0.019982 0.084678
0.034117 -0.042225 -0.011137
0.037534 -0.026980 -0.049856
0.045686 0.008976 -0.118914
0.027662 -0.048635 -0.015404
-0.042548 -0.030713 0.084719
-0.018153 0.024379 -0.119779
-0.039790 0.037893 0.076793
0.049918 0.030096 -0.077668
0.048563 0.034253 0.082497
0.020762 0.037731 0.085124
-0.002049 0.020294 0.084511
0.034235 -0.038504 0.080713
-0.040595 0.032966 0.084615
0.016636 -0.045899 -0.098540
-0.036731 0.048758 -0.028868
-0.007096 0.005771 0.085115
0.048717 0.024224 -0.086042
0.035002 0.038189 0.009000
-0.010269 0.023909 -0.119812
-0.044675 -0.033387 -0.044121
0.049531 0.028265 -0.076554
-0.037043 0.045248 -0.115977
0.011604 -0.045431 -0.002252
-0.014764 -0.039444 -0.102253
-0.002527 0.047042 0.009925
0.019101 0.025404 0.085211
-0.001625 0.043540 0.085120
-0.019850 0.006888 0.085064
-0.052286 -0.024111 0.004266
-0.025699 0.036116 0.084842
-0.038182 -0.034520 -0.109974
-0.009357 -0.026054 0.084886
-0.022448 -0.004286 0.084740
0.048929 0.034352 0.023866
0.032053 -0.046804 0.051359
0.010901 -0.045518 0.084419
-0.045165 0.014602 0.053097
0.044093 0.004885 0.014620
0.014154 -0.026013 0.084966
0.034317 -0.042295 -0.032372
0.036816 -0.032256 -0.111890
0.010138 0.044225 -0.052932
0.049925 0.034044 -0.113462
-0.032084 0.053983 -0.018571
-0.033797 0.053610 0.032120
0.004872 -0.003301 0.085099
0.047531 0.022292 0.070522
0.036608 0.016922 0.085534
0.042033 -0.003654 0.031396
-0.047308 0.002798 0.018369
-0.033831 -0.035453 -0.098805
0.017348 0.012519 0.085295
0.040808 -0.011389 -0.047862
0.010059 0.044216 -0.017312
0.019299 0.019986 0.085282
-0.046132 0.006395 -0.057271
0.043596 -0.002017 -0.119107
-0.044824 0.014458 -0.026316
0.047363 0.021545 0.083784
0.049901 0.031415 -0.023854
0.037653 0.037539 0.016013
-0.010176 -0.040537 -0.083518
0.040761 -0.011540 -0.034421
0.035534 -0.037768 -0.074158
0.023965 0.041226 -0.113795
0.034359 -0.000404 0.085521
-0.037467 -0.014163 0.084727
0.043586 -0.000086 -0.102674
0.038090 -0.002948 0.085545
0.032344 -0.038832 0.085277
0.006120 -0.044680 0.069627
0.029051 0.040020 -0.115130
-0.038550 0.038759 -0.119461
0.048348 0.035746 -0.089725
-0.024010 -0.013696 0.084842
-0.047732 -0.032970 0.011737
0.041960 0.036363 -0.119956
0.021646 -0.047722 0.085088
-0.044406 -0.033416 -0.077163
0.030072 -0.048549 -0.050380
0.004044 0.045780 -0.118629
0.044434 0.036598 -0.078879
-0.030734 0.053669 -0.052898
0.019102 -0.046542 -0.073468
-0.033081 -0.036475 0.074495
0.038087 -0.021115 0.074496
0.047811 0.020041 -0.087654
0.044172 0.036635 -0.098578
-0.053108 -0.028008 0.058775
0.020599 -0.040614 0.085173
-0.036940 0.047568 -0.065682
0.032647 -0.045954 0.037548
0.046869 0.036062 -0.111737
-0.038890 0.029516 -0.119901
-0.033579 0.023292 0.084384
0.033292 0.026386 0.084905
-0.042119 0.025054 -0.085755
0.049719 0.031778 -0.013363
-0.047835 -0.018491 0.084578
0.033554 -0.043398 0.030359
0.038585 -0.001036 0.085571
0.014321 0.043021 0.006891
0.029346 -0.048482 -0.075557
0.018544 -0.032785 0.085260
0.039434 -0.018221 -0.065747
-0.029182 -0.027788 -0.119613
0.046213 0.035808 0.000986
0.033190 -0.044958 0.025833
0.023062 0.041250 -0.045486
-0.044763 0.005539 0.084487
-0.024839 0.052360 -0.104472
-0.040078 0.037002 0.082300
0.027619 -0.048265 -0.088840
0.044283 0.005928 0.021720
0.008551 0.014865 0.085168
0.008710 0.044584 -0.105380
-0.044590 -0.033403 -0.060304
0.002886 -0.007697 0.084978
-0.032026 0.054010 -0.056174
0.047901 0.035375 -0.008748
0.033614 -0.040073 -0.119885
-0.014242 0.049260 0.082793
0.038735 -0.021758 -0.065797
0.048868 0.027121 0.046444
0.044257 0.004968 -0.015291
0.037811 -0.023539 0.024362
0.025000 -0.048043 -0.025476
-0.034262 0.052965 -0.084647
0.041945 -0.005136 -0.022123
-0.043323 0.016003 0.084454
-0.047348 0.003666 0.056410
-0.039049 0.012117 0.084244
-0.019790 0.021397 0.084477
-0.020346 0.006038 0.085058
0.027341 0.013847 0.085533
-0.029600 0.052788 0.084289
0.044391 0.003847 -0.108126
-0.022094 0.041765 0.084879
-0.047116 0.005664 0.083095
0.027643 -0.048725 -0.004057
0.030051 0.039655 -0.055668
0.030593 -0.048325 0.019036
0.016318 -0.046686 0.056735
0.023341 -0.047355 -0.096607
0.044617 0.009702 0.075297
-0.048576 -0.005946 -0.047265
-0.009528 0.048416 0.033525
-0.036331 0.050032 0.043354
-0.047069 0.006018 0.079650
0.040579 0.036864 0.024373
0.035918 -0.033621 -0.009274
-0.047024 0.002952 -0.033079
0.031898 -0.005329 -0.119649
0.007416 0.044987 -0.086603
-0.034656 0.053028 -0.051935
-0.039240 -0.034508 -0.062491
0.032321 -0.046603 0.029415
0.009215 0.044394 -0.039111
0.044319 0.015405 -0.119962
0.009082 0.011184 0.084860
0.035463 -0.035478 -0.000026
0.013908 -0.010159 -0.119560
0.005775 0.019467 0.084492
0.047317 0.019298 -0.009338
-0.001948 0.046689 0.039952
0.040399 -0.011665 0.020681
-0.048414 -0.032379 -0.104915
0.039620 -0.017949 -0.100043
-0.039979 0.037378 0.081740
0.046154 0.013624 -0.029934
0.032202 -0.046980 0.008121
0.013803 -0.045278 0.085286
-0.001265 0.029439 0.084497
-0.001328 0.046732 0.016718
-0.033597 0.037350 -0.119855
-0.026506 -0.024965 -0.119654
-0.045618 0.009847 -0.046660
-0.044257 0.017445 -0.019669
-0.051508 -0.030764 -0.025583
-0.031719 -0.035960 -0.065801
0.048872 0.035379 -0.076043
-0.050829 -0.031521 -0.049011
0.033057 -0.046332 -0.096938
-0.010328 0.012195 0.085143
-0.002206 -0.017516 0.085016
0.033442 -0.043974 0.026193
-0.043105 0.021470 -0.059808
-0.016793 -0.038550 0.084943
-0.048552 -0.007292 -0.074731
0.032303 -0.047195 -0.058608
0.035526 -0.039369 -0.112968
0.033668 -0.041925 0.067774
-0.039759 -0.018854 -0.119623
0.048840 0.028316 0.081492
-0.038678 0.041148 0.031007
0.027678 -0.009541 0.085339
0.046011 0.036227 -0.073520
-0.018958 0.018679 0.084682
-0.040267 0.015966 0.084664
0.043434 0.002217 0.019398
0.043737 0.002357 -0.039043
-0.010727 0.049307 -0.118509
-0.041029 0.002745 0.084787
0.049037 0.027180 -0.001091
0.040595 -0.011378 0.010399
-0.011248 -0.006917 0.085089
0.046716 0.035760 -0.003857
-0.036337 0.048514 -0.100538
-0.051424 -0.031657 0.048852
0.028038 -0.010637 0.085359
-0.049495 -0.014189 0.084423
-0.028307 0.030742 0.083768
0.003746 0.027070 0.084477
0.022968 0.040684 0.078780
-0.032325 0.053913 0.010906
0.020132 0.041658 0.007044
0.039041 0.037568 -0.027830
-0.036509 0.047609 -0.092298
-0.024098 0.010418 0.084394
0.043877 0.002190 -0.074308
0.018528 -0.047134 0.082113
-0.026910 0.053073 -0.117539
-0.049215 -0.032063 -0.104929
0.045646 0.036296 -0.100055
-0.043453 -0.009690 -0.119552
-0.016707 0.042291 0.084472
-0.048932 -0.005967 0.003980
0.030538 0.035971 0.085381
-0.048950 -0.009296 0.084646
0.034845 -0.036317 0.053163
0.046982 0.035513 0.014512
-0.035833 0.051527 0.044501
0.041205 -0.005616 0.071838
-0.015478 -0.001713 0.084897
0.004371 0.045642 -0.060914
0.030968 0.039036 0.018766
-0.032197 0.053822 0.020451
0.026217 -0.016092 -0.119554
0.021167 -0.047723 0.064484
0.028720 -0.047617 -0.120027
-0.015135 -0.039473 -0.059758
0.036909 -0.031851 -0.113644
0.035100 -0.034379 0.081742
-0.025121 0.052232 0.012478
-0.009290 0.048939 -0.118607
-0.037023 0.044931 -0.119631
0.001804 0.008074 0.085208
-0.004839 -0.041902 -0.020959
0.039566 -0.016700 -0.014749
0.021624 -0.046991 -0.106838
-0.053225 -0.027470 0.068048
-0.007536 0.048260 -0.035018
-0.051384 -0.028705 -0.116060
0.049617 0.030097 0.007327
-0.036854 0.047818 -0.069020
-0.037723 0.044920 0.026417
-0.012472 0.029972 0.084502
0.042008 -0.007119 -0.107071
-0.040473 0.033954 0.023638
-0.002646 -0.042175 -0.054611
-0.015729 -0.039327 -0.060551
0.044614 0.006121 -0.051193
-0.014119 -0.040450 0.080633
0.037739 0.037507 0.037634
-0.027028 -0.030237 -0.119724
-0.010185 0.027194 0.085007
0.032209 0.039204 -0.069224
0.043487 0.002113 0.003315
0.036567 -0.009015 -0.119769
0.022941 -0.047781 0.008674
-0.023948 -0.001439 0.085000
-0.048544 -0.007744 -0.089697
0.036551 -0.018882 0.085426
0.039219 -0.019004 -0.039458
0.013924 -0.045829 -0.002276
0.029458 0.036338 0.085397
-0.038549 -0.013066 0.084779
-0.049357 -0.008345 -0.019408
-0.014499 0.049427 0.068725
0.004571 0.004084 0.085096
0.042000 -0.007279 -0.116246
0.038105 0.026047 0.085195
-0.016340 -0.039833 0.044317
0.045750 0.036326 -0.091855
-0.023719 -0.038244 0.084047
0.047104 0.016642 -0.092486
0.043835 0.036511 -0.023407
-0.041659 0.022073 0.084590
-0.018770 0.008219 0.085044
-0.052016 -0.026854 -0.084185
-0.045094 0.010829 -0.074013
0.004788 -0.043319 -0.119631
-0.041027 0.024905 -0.119860
0.002124 0.046044 -0.019583
-0.046497 0.005583 -0.031336
0.020107 -0.047652 0.078779
-0.012293 0.049304 -0.020412
-0.049529 -0.032683 0.055286
0.044901 0.011129 0.083927
-0.052266 -0.023935 0.001560
0.005769 0.023060 0.083853
-0.029695 -0.036349 -0.071883
0.041544 -0.007941 -0.052772
-0.049529 -0.008298 0.033249
0.015158 -0.045969 -0.030826
-0.030684 0.053371 0.050439
0.027317 -0.048766 0.027274
0.033721 -0.042681 0.029327
-0.026055 0.052497 0.003819
-0.049311 -0.033006 0.068073
0.039277 -0.016942 0.027480
-0.009132 0.048883 -0.083724
-0.012832 0.042929 0.084478
-0.023152 -0.036715 0.084919
0.008498 0.004488 0.085031
0.019635 -0.003033 0.085159
0.028222 0.004207 0.085038
0.033075 -0.045697 -0.001608
0.027379 -0.048781 0.029807
0.048970 0.026363 -0.048229
-0.036159 0.050541 0.035338
0.044576 0.004890 -0.091096
0.013032 -0.043596 0.085197
0.037024 -0.028675 -0.019256
0.038519 0.037533 0.001822
-0.040579 0.030271 -0.118552
0.015277 -0.018769 0.085272
0.034295 -0.040501 0.026289
0.004993 0.029844 0.084759
0.049564 0.031704 0.044196
0.006392 -0.043888 -0.084223
0.037895 -0.024524 -0.023084
0.005998 0.023958 0.083938
-0.043413 -0.007424 0.084588
-0.043296 0.021362 0.084417
0.000408 -0.013361 0.084995
-0.040213 0.023834 -0.119874
-0.013112 -0.040644 0.066803
0.030602 0.039058 0.029460
0.025312 -0.038679 0.085084
0.024212 -0.048006 0.002736
0.010516 0.024548 0.084974
-0.004709 0.031384 0.085005
0.042886 -0.001167 -0.052971
0.049141 0.033798 0.025719
0.038946 -0.020259 -0.036616
-0.047157 0.004523 0.049626
0.037825 -0.026413 -0.073561
0.032401 -0.046343 0.043462
-0.011825 -0.040069 -0.107790
0.010793 0.015590 0.084926
0.040970 0.037019 -0.002700
0.001579 0.004106 0.085128
-0.009534 -0.040669 -0.064662
-0.032732 -0.035966 -0.022135
0.026728 -0.048094 -0.085837
0.048857 0.023716 -0.115363
-0.049632 -0.032909 0.076784
-0.045924 -0.033934 0.081197
0.006224 0.045333 -0.093920
-0.039295 0.038756 0.029105
-0.051624 -0.017853 0.062411
-0.013698 -0.040027 -0.014162
-0.011113 -0.040396 -0.052392
-0.020520 -0.037168 -0.119968
-0.047306 0.002866 0.022284
0.035109 -0.038345 -0.029317
-0.037906 0.044273 0.004397
-0.012091 0.041395 0.084534
0.029518 0.039384 0.015558
-0.048741 -0.004768 0.016374
0.000073 0.023736 0.083655
0.009480 0.044449 -0.102042
-0.027601 -0.005312 0.084929
0.033523 -0.043525 0.030951
-0.019466 0.050998 -0.018005
0.044265 0.005020 -0.020538
0.035693 0.035962 0.085078
0.017594 -0.019985 0.084947
-0.028922 -0.037141 0.083221
0.021679 -0.016251 0.085160
-0.020934 0.042621 0.084885
-0.050365 -0.013883 0.084423
0.033034 -0.045679 0.009404
-0.041758 -0.024821 -0.119649
0.029671 0.039272 0.055569
0.005335 -0.043636 -0.076357
-0.004371 -0.042309 0.041076
0.037304 -0.025047 0.083198
0.034621 -0.042962 -0.113530
0.010806 -0.045278 0.007695
-0.022814 -0.011033 0.084957
-0.009956 0.048767 -0.042339
0.006585 -0.006404 0.085104
0.045476 0.013406 0.073974
-0.020116 0.051277 -0.108126
-0.018231 -0.039113 0.008435
0.045731 0.035696 0.074736
-0.004579 0.041327 0.084754
-0.049240 -0.032142 -0.096744
0.021734 -0.047971 0.083032
0.002761 -0.035842 0.085149
-0.041432 -0.025126 -0.119660
0.007440 0.044499 0.025439
-0.043650 -0.012170 0.084654
-0.009862 -0.041197 0.052978
0.034068 -0.043833 -0.068782
0.043264 0.000275 -0.034996
0.027576 0.040700 -0.119466
0.002065 -0.042969 -0.110589
0.035692 -0.033044 0.042617
-0.001834 -0.042193 -0.102393
0.033938 -0.044654 -0.065964
-0.051215 -0.020790 0.084553
-0.033363 0.027987 0.084528
-0.011094 -0.040244 -0.077493
0.040996 -0.011896 -0.109130
-0.048588 -0.007717 -0.078652
-0.036869 0.048148 -0.000418
0.030475 -0.008698 0.085208
-0.047628 -0.002043 -0.077766
-0.013610 -0.040119 -0.000707
-0.051765 -0.020162 0.019444
-0.037638 0.045645 0.049334
-0.031243 0.053370 0.074559
0.019978 0.029864 0.084249
0.023066 0.041061 -0.001343
-0.051703 -0.026874 -0.113329
0.018788 -0.004061 0.084982
-0.048991 -0.032861 0.041758
-0.045311 0.013635 0.048093
0.047350 0.015914 -0.119001
0.031633 0.038643 0.078675
-0.031413 -0.036699 0.049758
0.035164 0.038375 -0.016153
-0.040603 -0.034373 -0.012101
0.028595 0.039906 -0.022217
0.003131 -0.043590 -0.010089
-0.010268 -0.040900 0.017350
-0.051816 -0.029872 -0.044497
0.034325 -0.041331 -0.006153
-0.048466 -0.002952 0.023370
0.033646 -0.042708 0.038896
0.009867 0.044233 -0.015188
-0.031891 0.053732 0.047638
-0.036034 0.051263 0.058723
0.013408 0.022827 0.085283
0.035278 0.038062 0.019047
0.036591 -0.032279 -0.069303
0.048478 0.023289 -0.081551
0.011439 0.044020 -0.074979
-0.042364 -0.026323 0.084700
-0.046136 -0.033440 0.020078
0.013483 -0.039463 -0.119769
0.033519 -0.043270 0.038905
0.008684 -0.044415 -0.072495
-0.007959 0.008326 0.084477
-0.039129 0.022550 0.084880
-0.023323 -0.038085 0.003639
-0.037550 -0.035319 0.042352
0.012170 -0.028423 0.085033
-0.052252 -0.024802 -0.032596
0.028986 -0.048979 0.073132
0.005473 -0.043962 -0.041180
0.032187 -0.046447 0.063921
0.049352 0.033389 -0.002949
0.032372 0.007698 0.085484
-0.051258 -0.030631 -0.060985
0.035125 -0.035043 0.061652
-0.020816 -0.038785 0.080435
0.049383 0.030681 0.065777
-0.022111 -0.035346 -0.119914
0.011008 -0.045250 -0.012841
0.029527 0.022548 0.085677
0.032297 -0.019581 0.085337
-0.027678 -0.030506 0.084921
0.003959 0.033533 0.084140
-0.003581 0.006443 0.085034
0.047481 0.019130 -0.065097
0.035587 -0.038238 -0.092621
0.035145 -0.035262 0.083333
0.037301 -0.028311 -0.053376
-0.001801 -0.011065 0.085007
0.049657 0.031482 0.038785
-0.051755 -0.028462 -0.092697
0.019681 0.034554 0.084934
-0.020086 -0.021459 -0.119542
-0.030221 0.053541 -0.052663
0.038760 -0.018738 0.047412
0.032525 -0.022680 0.085210
0.007621 0.044343 0.059445
-0.050889 -0.031327 -0.056949
0.016460 0.042071 -0.119832
-0.019651 0.002038 0.084605
0.049117 0.029474 -0.119936
0.042660 -0.002455 -0.036672
0.032676 0.038975 -0.038026
0.000339 0.046670 -0.083825
-0.003956 -0.042279 0.022646
-0.017462 -0.012268 0.084907
0.025954 0.015925 0.084621
0.009712 -0.045471 0.081552
0.042833 -0.001829 -0.058168
0.034521 0.010116 0.085572
0.041386 0.023238 0.084477
0.039141 0.007363 0.085634
-0.050129 -0.011873 0.005443
0.049269 0.034039 -0.021161
0.009631 -0.044484 -0.109196
-0.035768 0.051926 0.070544
0.044093 0.001989 -0.119724
0.048948 0.034489 0.000936
-0.034269 0.005351 0.084422
-0.029747 -0.032877 0.084882
0.045196 0.007427 -0.102564
-0.004490 0.047476 -0.103922
-0.035417 0.052239 -0.002283
0.038368 -0.024379 -0.116877
-0.050212 -0.017461 -0.099521
0.030437 -0.048294 0.063023
-0.015770 0.049707 0.069566
-0.032798 0.053894 0.020432
-0.052589 -0.029554 0.048529
-0.020570 -0.029281 0.084915
-0.047876 -0.000147 0.012744
-0.016277 -0.032324 0.084942
-0.035693 -0.035319 -0.016303
-0.044920 -0.033734 0.024058
-0.048491 -0.003145 0.021219
-0.022214 -0.038354 0.014617
-0.016051 0.049927 0.043208
-0.000159 -0.042786 -0.058358
-0.020392 0.051174 -0.040918
0.046433 0.014762 -0.036845
-0.037449 -0.035235 0.026843
-0.019947 0.011721 0.084493
-0.035079 0.052661 -0.014743
0.046311 0.014000 -0.057275
-0.037969 0.033364 0.084591
0.021852 0.041028 0.063679
-0.052750 -0.026710 0.010274
-0.049856 -0.012320 -0.045356
-0.049920 -0.015063 -0.083322
-0.022575 0.049284 0.084166
0.039875 -0.016102 -0.051420
0.034613 -0.001653 -0.119676
0.033796 -0.041781 0.048817
0.034848 0.037528 0.085091
0.010017 0.005232 0.084731
0.007992 -0.012378 -0.119499
-0.053266 -0.026369 0.078793
-0.009025 0.048539 0.014816
0.030451 -0.048377 -0.031435
0.023644 0.041194 -0.073208
0.018783 0.042022 0.003736
-0.036109 0.050756 -0.004829
-0.032574 0.053683 0.082273
0.043875 0.001778 -0.089540
0.024450 0.041092 -0.101899
-0.031556 0.053862 -0.093054
-0.013372 -0.031504 0.084956
-0.046789 0.002143 -0.078554
0.049034 0.028210 0.058162
-0.047541 0.001350 -0.001322
-0.052993 -0.025500 0.060135
0.034429 -0.038625 0.050866
0.040863 0.037163 -0.030623
0.021417 0.025487 0.084980
-0.027341 0.007460 0.084845
0.036664 0.027078 0.084811
0.012452 0.043666 -0.015419
0.040039 0.033085 0.084855
0.020994 -0.044339 0.085183
-0.021734 -0.031980 -0.119723
-0.047520 0.003607 0.076910
-0.020854 0.050861 0.078361
-0.047540 0.002669 0.050383
-0.029583 -0.011816 0.084833
-0.018420 0.029681 0.084346
0.015931 0.017240 0.084737
-0.013346 -0.040457 0.080206
0.028298 -0.049122 0.074165
0.011861 -0.003225 0.085101
-0.010103 -0.032989 0.085051
0.044182 0.004629 -0.015107
-0.038700 0.040969 0.015602
-0.051777 -0.031138 0.051089
-0.032355 0.054136 -0.115963
0.032717 -0.045041 0.078380
-0.012456 0.037822 0.084952
0.007143 0.044674 0.015210
-0.031791 0.053759 0.016508
-0.044657 -0.027220 0.084715
-0.048225 -0.000018 0.071375
0.033596 -0.045318 -0.055983
-0.024143 0.041727 0.084420
0.039959 -0.014332 0.016686
0.010522 -0.005913 0.084980
-0.021280 0.051131 0.044619
0.033188 0.038483 0.049143
-0.020548 0.030735 0.084371
-0.050715 -0.014999 0.010946
-0.047093 -0.032595 -0.111997
0.050396 0.031180 -0.116579
0.013211 -0.045432 -0.058403
0.048484 0.023770 -0.066151
-0.007429 0.034232 0.084069
-0.035484 0.052068 -0.037237
0.031622 -0.047751 -0.051924
-0.037095 0.045083 -0.112785
-0.033457 0.053790 0.018627
0.000554 -0.043587 0.081388
-0.038496 0.041920 0.017817
0.005774 -0.014351 0.085199
0.035257 -0.015246 -0.119684
0.045361 0.036315 -0.067654
-0.010515 0.016129 0.085012
-0.052494 -0.027590 -0.038552
0.032957 -0.046478 -0.076317
0.039689 -0.015879 -0.005556
-0.036729 0.048515 -0.014845
-0.001572 0.046984 -0.062374
-0.007118 -0.010017 0.085154
-0.039092 0.037349 -0.098814
0.010125 -0.044673 -0.089424
-0.021615 0.051159 0.059948
-0.019067 -0.038398 0.084929
0.041117 -0.009998 -0.053413
-0.044238 -0.033475 -0.050484
-0.020979 0.051340 -0.102694
-0.022383 -0.034708 0.084929
0.022594 -0.047707 0.007806
0.010247 -0.044878 0.084971
-0.050945 -0.016016 0.084540
-0.026221 0.038138 0.084811
-0.037430 -0.032141 0.084658
-0.034719 -0.007464 0.084697
0.048404 0.034736 0.058317
-0.012414 0.007386 0.085088
0.002596 -0.043828 0.055497
0.023356 -0.048109 0.077350
0.034168 -0.040360 0.043098
0.017968 -0.032736 0.085280
-0.050654 -0.019087 -0.087442
-0.041696 0.023256 0.084226
-0.041015 0.020355 0.084698
-0.044456 0.017856 0.058276
0.044123 0.021115 0.085081
0.046169 0.014394 0.013607
0.032327 -0.047218 -0.074276
-0.009241 -0.011953 0.084978
0.042622 -0.002180 -0.010831
0.002306 0.044038 0.085018
-0.012132 0.035153 0.084895
0.041958 -0.004786 0.010362
-0.040847 -0.034632 0.029677
0.025699 0.040559 -0.020531
-0.038554 -0.017003 -0.119559
0.005445 -0.043843 -0.053209
-0.053218 -0.026852 0.065569
-0.002806 -0.003764 0.085141
-0.035298 0.052234 -0.058957
-0.023102 -0.037965 -0.022525
0.036350 -0.034763 -0.117177
-0.047826 -0.003284 -0.080870
0.029823 -0.048406 -0.079553
-0.046504 0.003644 -0.077975
-0.047319 0.002782 0.023867
-0.025143 0.020719 0.084413
0.028724 -0.017704 -0.119564
-0.050869 -0.019269 -0.069268
0.012810 -0.015868 0.085011
-0.020915 0.012882 -0.119583
0.034147 -0.042158 -0.012502
-0.016041 -0.040035 0.072606
-0.018906 0.034060 0.084512
0.047394 0.033970 0.085173
0.000494 0.030956 0.084184
0.039364 -0.014745 0.065039
0.023901 0.013751 0.085372
-0.051469 -0.031146 -0.003775
0.012184 0.039279 0.084679
-0.048105 -0.005606 -0.094128
0.036552 -0.028678 0.085186
-0.051339 -0.029423 -0.101364
0.037028 -0.031477 -0.118139
0.025586 0.018857 0.084342
0.033329 -0.045847 -0.071440
0.020268 0.029771 0.084220
0.046865 0.018960 0.058318
-0.023454 -0.038081 0.009811
-0.052671 -0.028161 0.007444
0.044038 0.002195 -0.110018
0.048632 0.025302 -0.120042
0.018567 0.031944 -0.119883
0.022958 0.024028 -0.119896
0.047282 0.033578 0.085197
-0.015879 -0.017237 0.084810
-0.037385 0.047256 0.082004
0.036993 -0.028249 -0.000567
-0.046358 -0.030040 -0.119972
-0.034613 0.053218 0.066272
-0.041346 0.017528 -0.119725
0.028869 0.007495 -0.119741
0.041234 -0.011618 -0.119567
0.006406 -0.002927 0.084927
0.007027 0.044680 0.018282
0.039741 -0.016493 -0.037843
-0.001940 0.035684 0.084756
-0.004970 0.047661 -0.108256
-0.037430 0.045267 -0.070874
-0.029331 0.053181 0.011688
-0.044398 -0.033439 -0.059132
-0.046420 0.004684 -0.071410
0.030197 -0.008628 -0.119652
-0.027569 0.052850 -0.047689
-0.023364 0.051764 0.016833
0.028423 -0.048829 0.077635
0.014595 -0.044966 0.085269
-0.009511 -0.041158 0.027739
0.036605 -0.030414 -0.009609
-0.051246 -0.031431 0.035789
0.049637 0.029582 -0.024836
-0.050741 -0.013974 0.041952
-0.013226 0.049274 0.035299
-0.009840 0.048308 0.074200
-0.047467 0.003960 0.078064
-0.012459 0.049599 -0.088833
-0.005714 0.047572 0.049929
-0.038328 -0.035188 0.045588
0.019982 -0.046700 -0.079734
0.036160 0.032695 0.085213
0.008358 0.044561 -0.028544
-0.033724 0.053384 -0.083535
-0.017621 -0.019533 0.084742
0.033899 -0.044260 -0.043523
0.034563 -0.013169 0.085434
0.018135 -0.047051 0.052733
-0.031394 0.053325 0.083134
-0.044107 0.017571 -0.037744
0.038387 -0.020520 0.049168
0.035635 -0.037347 -0.075647
0.049591 0.029188 -0.039758
0.036070 -0.034160 -0.041684
0.018310 0.008985 0.085278
0.010161 0.026542 0.084971
-0.051827 -0.025243 -0.077944
-0.045540 0.011001 -0.017576
-0.039206 -0.035022 0.040547
-0.012358 0.048761 0.083782
0.008968 -0.044618 -0.044497
-0.018681 0.029743 0.084237
-0.041320 0.031959 0.080203
-0.030710 0.053277 0.067845
-0.034531 0.053206 0.018716
-0.044999 0.013588 -0.022606
0.035051 -0.036014 0.038053
-0.049431 -0.011637 -0.073003
0.027628 -0.048886 0.076465
-0.045626 -0.033715 0.045087
-0.008777 0.047341 -0.119802
0.033649 0.038512 0.003021
-0.046096 0.007511 -0.034289
0.042138 0.000608 -0.119776
-0.006774 -0.010659 0.085170
0.033544 -0.045654 -0.101576
0.044629 0.034966 -0.119860
0.008006 -0.020284 0.085222
-0.051835 -0.021273 0.008732
-0.014734 -0.040282 0.058665
-0.032043 0.053884 0.006654
-0.020407 0.013416 0.084360
-0.038229 0.040788 -0.087811
0.015678 0.034152 0.085314
0.033950 0.038877 -0.085726
0.033294 -0.043996 0.044094
-0.036103 0.050790 0.022794
-0.003697 -0.042099 -0.028668
0.002986 -0.024369 0.084887
-0.052136 -0.030184 0.029020
0.036238 -0.031148 0.014053
-0.052308 -0.026259 -0.053095
-0.050292 -0.032071 -0.028273
0.030305 -0.048364 0.066153
-0.004736 -0.042239 0.044428
-0.045824 0.001793 -0.119535
0.033533 -0.043015 0.048548
-0.050034 -0.032341 0.017081
0.015385 -0.029523 0.085243
0.032795 -0.046647 -0.067940
-0.039174 0.039100 0.014959
0.046775 0.015118 -0.092924
-0.031521 0.017905 0.084969
-0.022314 0.051316 0.060590
-0.040145 -0.034787 0.031166
-0.003902 -0.008116 0.085102
-0.019023 -0.022110 0.084832
0.021611 -0.047899 0.079830
-0.042103 -0.034347 0.025944
-0.029622 -0.021991 -0.119598
-0.012945 -0.039896 -0.080340
0.019047 0.042180 -0.024894
-0.036072 0.050823 0.037775
-0.039938 0.036017 -0.016859
0.024782 -0.006368 0.085310
-0.003184 0.022708 0.085047
0.004948 -0.041905 -0.119950
0.017870 -0.046588 -0.018292
-0.000361 0.045520 0.084753
0.038288 -0.022833 -0.017463
0.033762 -0.041490 0.069057
0.015825 0.042809 -0.008477
0.044246 0.036654 -0.094125
-0.027737 -0.036742 -0.100132
0.040641 0.007948 0.085366
0.036885 0.037677 0.037599
-0.047259 -0.033594 0.072609
0.018765 -0.046634 -0.043635
0.047165 0.016927 -0.090839
0.034669 -0.042569 -0.089895
-0.052124 -0.030614 0.053539
-0.040945 0.010671 0.084403
-0.018105 0.013031 0.084907
0.034558 -0.035559 0.085073
0.049776 0.033434 -0.070204
0.009859 -0.045266 0.036388
-0.035501 0.052062 0.012833
-0.024492 0.051895 0.025844
-0.015622 -0.008834 0.084864
0.022423 -0.000840 0.085311
-0.051252 -0.023756 -0.105497
-0.037524 -0.006485 -0.119465
-0.051243 -0.021036 -0.063105
-0.032744 0.053893 -0.097766
0.047832 0.035624 -0.027695
-0.044223 0.018442 0.039030
-0.048471 -0.002786 0.027809
0.039405 0.020316 0.085417
0.029425 -0.048740 -0.026919
0.039873 -0.013606 0.036662
-0.026359 0.043878 -0.119792
-0.013909 0.049598 0.015312
0.002530 0.045982 -0.102594
-0.050400 -0.014934 -0.037820
0.035251 -0.039611 -0.083763
0.043353 0.001242 -0.009098
0.033544 -0.045572 -0.086736
-0.046410 0.008105 0.043925
-0.044419 0.012648 -0.109850
0.001186 0.004809 0.085173
0.035972 -0.031041 0.062113
-0.027657 0.052587 0.031721
0.003079 -0.041874 -0.119973
-0.026551 -0.020741 0.084919
-0.003966 -0.012728 0.084680
0.006940 -0.016237 0.084895
0.019917 -0.046823 -0.057194
-0.010370 0.028920 0.085027
-0.032194 0.054183 -0.111855
-0.014654 0.049588 0.028044
0.029839 0.039531 -0.010379
-0.052602 -0.028853 0.019631
-0.032127 0.025726 0.084723
-0.020480 0.035102 0.084342
0.034394 0.020211 0.085307
0.008480 0.044500 -0.013244
0.029696 -0.048661 0.071646
-0.028810 0.053150 -0.050278
-0.046863 -0.033138 0.008622
0.045572 0.036313 -0.104847
0.039711 0.037332 -0.004628
0.021338 -0.010977 0.085033
-0.021764 -0.037874 -0.112076
-0.052106 -0.026441 -0.072767
0.021331 -0.019636 0.085133
0.045616 0.013165 0.084379
-0.039761 -0.034376 -0.072155
0.026089 0.040482 -0.039063
-0.049545 -0.032029 -0.084041
-0.031586 -0.035911 -0.084310
-0.041104 0.029331 -0.081385
0.016037 0.043023 -0.088348
-0.046073 -0.002771 -0.119486
-0.009415 -0.026398 0.084885
0.043732 0.002815 -0.016393
-0.017237 0.011866 0.085042
-0.052933 -0.025364 0.051838
0.020370 -0.046685 -0.103604
0.049342 0.025803 -0.111103
-0.049682 -0.012944 -0.074090
-0.023412 0.011327 0.084538
0.044277 0.003300 -0.111640
-0.015137 -0.039452 -0.060961
-0.031406 0.053947 -0.119727
-0.024947 0.010632 0.084524
0.043931 0.003531 -0.025040
0.035686 -0.034542 -0.005588
-0.036237 -0.035081 -0.057532
-0.035551 0.051784 -0.061681
0.013538 0.043571 -0.095587
0.032323 0.039035 -0.021462
-0.012609 0.013105 0.085072
0.003867 0.006978 -0.119614
-0.002581 0.020255 0.084870
0.013161 -0.045275 -0.082045
-0.051171 -0.030361 -0.079801
0.023969 -0.010171 0.085287
-0.050546 -0.032437 0.063766
-0.037280 0.047204 0.065944
0.006802 0.045102 -0.057569
-0.051960 -0.030427 0.019440
-0.006409 -0.029020 -0.119655
0.010067 -0.004762 0.085182
-0.006138 0.047547 0.074498
-0.026404 0.034743 0.084876
-0.050645 -0.031840 -0.036137
-0.018028 -0.022652 -0.119570
-0.008407 0.048489 -0.110818
0.033125 -0.045773 -0.030499
-0.004759 0.047313 0.059978
0.017971 -0.018536 0.084942
-0.001099 0.046834 -0.025726
-0.035772 0.051576 -0.034709
0.023019 0.041146 -0.009942
0.028194 0.040156 -0.073189
0.031824 0.039083 -0.007782
-0.051871 -0.022259 -0.013637
-0.044252 0.019692 0.081335
-0.049881 -0.014076 -0.068374
-0.045743 -0.032906 -0.112883
-0.012047 -0.040401 -0.010449
-0.041184 -0.031701 0.084714
0.037737 -0.023171 0.044608
-0.011760 0.003933 -0.119449
-0.036235 0.048895 -0.096327
0.049210 0.034602 -0.052288
0.009049 0.034400 0.084690
-0.033116 -0.013645 0.084801
-0.045302 0.009387 -0.090823
0.041527 -0.007334 -0.021227
0.049998 0.031206 -0.047363
0.017404 0.042035 0.067555
0.001939 0.004562 -0.119637
-0.045518 -0.003609 0.084652
0.007404 0.000421 0.084699
0.049582 0.032589 -0.003626
0.000042 -0.042646 -0.073620
-0.045441 0.011206 -0.028804
0.009916 0.033290 -0.119877
-0.017319 -0.019304 0.084742
-0.017003 -0.039064 -0.088210
-0.049423 -0.032468 -0.011893
0.033300 -0.045975 -0.096488
-0.019668 0.051163 -0.070632
0.006377 0.044900 0.014366
-0.021609 -0.038431 0.006508
-0.021869 -0.038079 -0.055001
-0.051873 -0.025915 -0.089053
0.001343 0.046245 -0.110281
0.038550 -0.022242 -0.056007
0.036799 -0.030315 -0.037042
-0.047469 0.000046 -0.044002
-0.011126 0.027216 0.084707
-0.011316 -0.040151 -0.110417
0.026748 -0.018407 0.085084
-0.041872 0.025017 -0.108543
0.049511 0.026591 -0.114968
-0.040594 -0.010927 -0.119568
0.012796 -0.046404 0.078350
-0.049285 -0.007357 0.020689
-0.010823 -0.040638 0.081858
0.031338 0.039320 -0.053410
0.050008 0.031286 -0.051996
0.045063 0.036308 -0.055686
-0.045993 0.007828 -0.039814
0.015421 -0.045807 -0.064990
-0.018547 0.005346 0.084788
0.043982 0.012391 0.085144
0.048167 0.023530 -0.120035
0.043598 -0.000053 -0.112220
-0.010299 -0.007479 0.084921
0.037135 0.037640 0.018043
-0.005385 -0.027379 0.085079
0.036987 0.014340 -0.119936
0.001454 0.045847 0.056476
0.029195 -0.048931 0.056229
-0.017329 -0.000995 0.085058
-0.036339 0.049627 -0.071851
0.011047 -0.045491 0.033543
0.004336 -0.044345 0.080741
0.034248 -0.043723 -0.066890
0.040782 0.037391 -0.077464
-0.052880 -0.027137 0.018668
-0.028536 -0.017223 0.084866
0.049548 0.029675 0.006752
0.036449 -0.032015 -0.035823
0.048371 0.027787 0.083768
0.010252 -0.044567 -0.110575
0.035303 -0.039697 -0.095015
0.018260 0.036288 0.084881
0.026920 0.040448 -0.067925
0.034232 -0.039282 0.066015
0.043420 0.036585 -0.017525
0.018881 -0.024134 0.085203
0.034936 0.017443 0.085310
0.024332 0.039616 0.085231
0.021214 -0.030658 -0.119612
0.041810 -0.006478 -0.036519
-0.007481 0.031461 0.083999
0.044332 0.006660 0.038371
-0.041983 -0.033450 -0.119595
-0.015030 -0.040295 0.079710
-0.030722 0.053390 0.042478
0.015399 -0.026337 0.085192
-0.014193 0.005093 0.085060
0.031977 -0.047377 -0.016947
-0.050665 -0.031821 0.030553
-0.029229 0.042017 0.084814
-0.035949 0.051203 0.026333
0.035961 -0.031219 0.084345
0.040541 -0.010891 0.022912
0.036504 -0.033836 -0.115761
0.038777 -0.012472 0.085577
0.045649 0.008837 -0.119503
0.004822 -0.043468 -0.103827
0.020805 0.002881 0.085387
0.027302 0.040227 -0.043712
-0.029357 0.053467 -0.100154
0.040532 -0.011702 0.008746
0.033833 -0.042632 0.015669
0.027186 -0.048631 0.009596
0.023886 0.040646 0.043752
0.013871 0.022744 0.085270
-0.012107 -0.030873 0.085009
-0.036858 -0.034878 -0.097621
0.018006 0.042023 0.056284
0.014561 0.043123 -0.013748
-0.011549 0.021034 0.084383
0.035246 -0.040213 -0.101142
-0.011361 -0.015329 0.085035
0.027258 0.040441 -0.097837
-0.015936 -0.039263 -0.061232
-0.028816 0.052618 0.084235
0.010164 -0.044512 -0.117327
-0.038127 0.040996 -0.106300
0.029494 -0.048621 -0.053238
-0.003761 0.047592 -0.072942
-0.052774 -0.028113 0.022159
-0.000881 -0.042221 -0.119185
0.032944 -0.046429 -0.065347
-0.053220 -0.026317 0.070094
-0.035237 0.051647 -0.115528
0.004197 0.025603 0.084162
-0.015032 -0.039789 -0.008929
-0.027102 0.052598 0.019596
0.004139 -0.001233 0.085162
0.049801 0.028300 -0.101797
0.040874 -0.007765 0.057583
0.005318 -0.011428 -0.119505
0.050131 0.031441 -0.086604
-0.032440 0.054153 -0.105681
0.023305 -0.048066 0.043540
0.036551 -0.027665 0.069731
0.031809 -0.032676 0.085259
0.017036 0.042357 0.021215
-0.012525 -0.039391 0.084982
-0.047129 0.002289 -0.036240
-0.006722 -0.041015 -0.118232
0.049489 0.034680 -0.092920
0.032676 -0.045303 0.073926
0.028896 -0.048583 -0.058812
-0.033834 -0.036143 0.045503
-0.021938 0.006838 0.084806
0.046195 0.014479 0.010292
0.012265 0.028089 0.085230
-0.052660 -0.023291 0.080181
-0.048978 -0.032464 -0.056885
0.042968 -0.002832 -0.100090
