0.040637 -0.011014 0.041337
-0.001160 0.035650 -0.037507
0.061000 -0.000270 0.023756
0.031149 -0.020924 0.022036
0.055169 -0.007828 0.025329
0.014422 -0.012639 -0.037817
0.053754 0.001644 0.023883
0.027906 0.024713 0.019126
-0.011359 -0.038206 0.020983
-0.046123 0.006758 0.041800
0.018133 -0.025446 -0.037870
0.035579 -0.007375 0.035138
0.036957 -0.014828 0.039983
0.031349 0.021788 0.028366
0.007658 0.007523 -0.037264
0.026948 -0.026161 -0.017617
-0.026528 -0.026394 -0.038447
0.024857 -0.027049 0.034233
0.004427 0.039200 0.013852
0.035110 0.013928 0.025940
0.012240 -0.036361 -0.032276
-0.022506 0.036254 0.040489
-0.042344 0.018364 0.039533
-0.038125 0.000550 -0.038611
0.035564 -0.007301 0.016600
-0.008655 0.028764 -0.038315
0.027445 0.025114 0.024326
0.035189 0.008578 0.002100
0.008299 -0.017301 -0.007553
0.011785 -0.036923 -0.016817
-0.024943 0.028599 -0.037402
0.021668 0.030938 0.034658
-0.016394 -0.013929 -0.036089
-0.043742 -0.004915 -0.019254
0.033892 0.013558 0.033774
0.032746 -0.017444 -0.011732
0.006011 -0.039920 0.038653
0.011391 0.042322 0.039564
-0.031878 0.030839 0.003707
-0.014156 0.032764 -0.037680
-0.000507 -0.040136 0.024444
-0.023501 0.032308 -0.036073
0.024601 0.028785 0.038933
0.001926 -0.038606 0.019986
-0.009744 0.037747 -0.037669
0.041381 -0.004486 0.029499
0.018857 0.033751 -0.033820
-0.032265 0.029585 -0.021420
0.026210 0.011356 -0.038806
-0.018573 -0.024105 -0.038146
0.003570 -0.003344 -0.037108
0.031768 -0.020095 0.035853
-0.015052 -0.037326 0.020408
0.044783 -0.005705 0.028754
0.006404 0.038835 0.014816
-0.018335 0.037272 0.012426
-0.003914 0.000261 -0.035708
0.028174 -0.022177 -0.035831
0.042140 -0.006363 0.028666
-0.021239 0.037668 0.006953
-0.044095 -0.003184 -0.012068
0.024191 0.008313 -0.038434
-0.008255 -0.027038 -0.037137
0.013968 0.035148 0.001772
-0.027695 -0.031725 0.040153
-0.016166 0.037245 -0.036444
0.014168 -0.013826 -0.036562
-0.003883 0.012431 -0.035573
-0.041166 -0.015479 -0.007171
-0.020133 0.037722 -0.028009
-0.025045 -0.005399 -0.020285
-0.037656 0.021250 0.023018
0.019640 0.023798 -0.038834
-0.003305 0.005703 -0.035663
-0.033492 0.000494 -0.037388
0.027127 -0.024319 0.031688
-0.028760 -0.017950 -0.038447
-0.004508 -0.040222 0.034236
-0.040552 0.018908 0.013617
0.026501 -0.002119 -0.037656
0.028454 0.027084 0.041384
-0.012184 -0.018891 -0.036101
0.013879 -0.033126 -0.035882
-0.009360 -0.039604 0.011098
0.031985 0.020173 -0.024514
0.025433 -0.018134 -0.037848
-0.035117 0.026529 -0.015886
0.027086 0.027228 -0.025877
-0.028993 -0.020565 -0.038615
0.015599 0.035229 0.032031
0.014496 0.035866 0.036611
0.011857 -0.022400 -0.038319
0.033478 0.003329 -0.035104
0.000813 -0.039803 -0.014049
-0.002336 -0.040277 0.036058
0.020349 -0.032304 0.016043
0.001516 0.039483 0.021831
0.007156 0.043040 0.042146
0.025092 -0.026257 0.010283
-0.035581 -0.024863 0.002144
0.013406 -0.036185 -0.020540
0.056976 -0.002181 -0.017303
0.046295 -0.006341 -0.019628
-0.008632 -0.040083 0.037869
0.036585 -0.006433 0.011743
-0.049517 0.004397 0.041118
0.034795 -0.012363 -0.028429
0.009720 0.039024 -0.020716
0.003317 -0.042970 0.039774
-0.044164 0.006631 0.033046
0.032953 0.016178 0.034637
0.012163 -0.027549 -0.038864
0.020757 0.033641 0.036112
-0.018495 0.028394 -0.037319
-0.017493 -0.036576 0.024435
-0.000635 0.039907 0.005271
0.041039 -0.006528 0.041822
-0.025650 0.031604 -0.035144
-0.011328 -0.039237 -0.023107
-0.042944 -0.004956 0.014044
0.019040 0.034535 0.008193
0.036767 0.011197 0.041326
-0.019510 -0.034124 -0.035861
-0.035223 -0.017695 -0.036722
0.008959 0.039178 -0.007108
0.003540 -0.026999 -0.037208
0.038321 -0.018533 0.040874
-0.044099 0.002931 -0.015804
0.033089 -0.013732 0.003084
0.005478 0.016921 -0.036073
-0.042182 -0.012609 0.032217
0.055552 -0.008298 0.024613
0.017727 0.035070 -0.030066
0.050195 0.001625 0.025494
-0.001628 -0.004252 -0.035715
-0.036316 0.023231 0.002822
-0.001159 0.041530 0.004306
0.030420 0.031772 0.039894
0.025515 0.036548 0.040184
-0.000619 -0.032542 -0.037583
-0.035870 -0.030353 0.041977
0.005866 -0.027689 -0.038475
-0.013988 -0.043785 0.041602
0.047528 0.003937 -0.021070
-0.043994 0.007201 0.005290
-0.040900 -0.021544 0.042083
-0.002119 0.041944 0.041222
0.012032 0.014529 -0.036361
-0.009464 0.041234 0.020683
-0.036122 -0.024367 0.005620
0.013972 0.037569 0.030287
-0.010239 -0.038554 0.020406
-0.006089 -0.040053 0.013893
0.027713 -0.025542 0.012758
-0.017970 0.039083 0.024766
0.002408 0.041633 0.041222
0.035134 -0.011899 -0.010551
0.033413 -0.016400 0.005289
0.041041 0.005261 0.041882
0.000791 -0.040028 0.021685
-0.008120 0.019462 -0.036068
0.005198 -0.037940 0.013083
0.033591 -0.013854 0.006925
0.025066 -0.009134 -0.038561
-0.026605 0.032386 -0.035789
-0.001412 0.043307 0.042001
0.008756 -0.042347 0.042071
-0.044599 0.002193 0.035930
-0.027394 -0.032092 0.040367
0.022131 0.027625 -0.036382
-0.005036 -0.039982 -0.003645
-0.043183 -0.008920 -0.011213
-0.022488 0.035694 0.007968
-0.043845 0.004170 -0.030972
-0.036578 -0.023575 0.036763
-0.031831 -0.010112 -0.037250
0.029751 -0.022904 0.005860
-0.029669 0.032425 -0.003951
0.036194 0.010311 0.015525
-0.041232 0.001934 -0.037549
0.007848 0.038320 0.007417
0.006942 -0.032085 -0.038827
0.055293 -0.005499 -0.016225
-0.024779 0.022295 -0.037227
-0.006678 -0.038879 0.024860
0.002606 0.042335 0.041628
-0.022940 0.036813 0.000670
0.000744 0.007619 -0.037093
-0.009586 0.005076 -0.037077
-0.001361 -0.028949 -0.037360
-0.027528 -0.007904 -0.036730
0.000555 0.016831 -0.035523
0.007326 0.010652 -0.035969
-0.036120 -0.023467 -0.027574
-0.042182 -0.011081 -0.028992
0.022763 0.031625 -0.008802
0.023340 -0.028416 0.014387
0.032643 -0.026755 0.041649
-0.039846 -0.016038 0.016060
-0.039060 -0.005637 -0.038257
-0.015637 0.037486 -0.036473
0.006226 0.022957 -0.037984
0.033272 -0.016585 -0.017949
-0.043591 0.021978 0.041867
0.012315 0.001318 -0.036007
-0.014090 0.005742 -0.037102
-0.003191 0.039985 0.009238
0.049074 -0.002299 -0.023105
0.022082 -0.030639 -0.023391
0.017262 -0.030946 -0.037593
0.024032 0.030545 0.010864
0.001618 -0.021232 -0.037693
0.034445 0.014765 -0.021469
0.022057 0.030821 0.006319
-0.043142 0.011609 0.010271
0.002885 -0.039354 -0.025673
0.034940 0.009750 0.016580
-0.002651 0.039962 0.003269
0.002428 -0.027976 -0.038337
0.060360 -0.008595 -0.006761
0.003865 0.044843 0.042112
-0.032069 -0.028154 0.040481
0.040932 0.000624 -0.025587
0.036620 -0.007528 0.036720
-0.017757 0.034351 -0.038235
0.022133 0.032219 0.026425
-0.031979 -0.028783 -0.003327
-0.042440 -0.011724 0.033698
-0.041231 -0.015542 0.006030
-0.031908 0.028949 0.021017
0.031764 0.019089 -0.033981
-0.042601 -0.009803 -0.027147
-0.006303 0.011984 -0.035770
-0.037846 0.013697 -0.038104
-0.038877 -0.020297 0.010815
-0.002246 0.046972 0.040566
0.033020 -0.014474 0.018627
-0.018195 0.008501 -0.036145
0.037750 -0.001974 0.038794
0.020623 -0.031997 -0.003408
-0.040649 -0.013853 0.033390
-0.043312 0.015018 0.041654
0.018711 -0.033287 -0.017423
-0.031415 -0.028847 -0.026543
0.034903 -0.012843 0.011276
0.010939 0.023689 -0.038279
0.026324 0.028314 0.028749
-0.041659 0.012539 0.004109
0.027789 0.022508 -0.032882
0.005480 -0.039264 0.025937
-0.004606 0.047138 0.040532
0.018879 0.030364 -0.036314
0.044970 -0.005464 0.025280
-0.021636 0.012324 -0.037606
-0.019193 -0.035751 0.003787
-0.008907 -0.045241 0.040537
0.024055 0.030621 0.012840
0.004018 -0.023899 -0.037922
0.062409 -0.007831 -0.008317
0.009985 0.032501 -0.038723
-0.035911 -0.027418 0.039814
0.036864 -0.006372 0.031862
0.057807 0.000080 0.026756
-0.032201 0.025863 -0.033330
-0.026095 -0.002362 -0.006354
-0.043270 0.005669 0.038883
0.020146 -0.021413 -0.037914
-0.029519 -0.030970 -0.000989
0.061480 -0.007195 -0.011385
0.001914 -0.040453 0.038691
0.012814 0.037952 -0.002127
0.014410 0.023986 -0.038551
-0.043193 -0.002834 -0.034478
-0.034059 0.027710 -0.021048
-0.038949 -0.014956 -0.036902
-0.009147 0.030042 -0.037047
-0.017430 0.027508 -0.038528
-0.008716 0.022425 -0.037660
0.021117 -0.016681 -0.037619
-0.025361 -0.033842 0.007260
0.021925 -0.029778 0.013339
-0.001300 0.041094 -0.030856
-0.013113 0.039177 0.029389
-0.017982 -0.011509 -0.036059
0.023305 -0.028366 0.000412
-0.015227 -0.037185 0.003977
-0.017544 0.030178 -0.037549
0.003129 -0.044855 0.041087
0.015408 0.038191 0.041752
0.008712 0.039475 -0.016742
-0.037588 -0.021242 0.040054
-0.022064 -0.030098 -0.037151
0.036991 0.005839 -0.023162
0.031890 -0.019676 0.018536
-0.044052 0.003397 -0.017922
-0.003757 -0.039580 0.039531
-0.023400 -0.025833 -0.034714
-0.021765 0.018233 -0.036640
-0.024584 0.023928 -0.038688
0.036074 -0.009611 0.011242
-0.040803 0.018992 0.038404
-0.042850 0.006724 0.015113
0.057136 0.003368 -0.013003
0.014316 -0.035805 -0.009689
0.021863 -0.031430 0.023368
0.019029 -0.031830 0.003994
-0.041784 0.011634 0.025763
0.057153 -0.002340 -0.016769
0.014058 -0.034869 0.023820
0.036529 -0.002720 -0.021944
-0.010384 -0.042833 0.042150
-0.032566 -0.019584 -0.037385
-0.043960 -0.003458 -0.018131
0.036825 0.004698 -0.005512
-0.009989 -0.043597 0.042137
-0.020894 -0.035939 -0.025442
-0.044336 -0.004955 0.005733
0.026642 0.028581 0.041198
-0.024113 -0.005136 -0.037523
-0.039045 -0.018901 -0.027488
-0.022228 0.033961 -0.035402
0.003932 -0.039440 0.016366
0.030449 0.023068 0.021277
-0.019002 -0.027201 -0.037716
-0.015400 0.039943 0.030684
0.002545 0.011463 -0.037194
0.025494 -0.028245 0.035085
-0.009863 -0.038510 0.028776
-0.032880 -0.019096 -0.038488
-0.004226 -0.039580 -0.032854
-0.027350 -0.007300 -0.037790
0.009825 0.039009 -0.029332
0.029136 -0.022756 -0.032221
-0.031053 -0.030238 0.041053
-0.035982 -0.024489 0.004681
0.018963 0.041084 0.040339
-0.008636 -0.039673 -0.001270
-0.001926 -0.039007 0.012847
-0.010951 0.010481 -0.035891
-0.001763 0.046834 0.041021
0.061584 -0.000008 -0.013695
-0.004279 0.041675 0.035497
0.012405 0.001737 -0.037433
0.039356 -0.014156 0.039652
-0.021761 -0.035711 0.012299
0.007167 -0.010266 -0.037413
-0.035421 -0.025297 0.009516
-0.046449 0.017674 0.041293
-0.040267 -0.004483 -0.038104
-0.003950 0.040146 0.012280
-0.035225 0.033812 0.041623
-0.002423 0.004172 -0.037017
-0.018142 0.003429 -0.037255
-0.036524 0.013468 -0.038522
-0.041720 0.015770 0.027400
0.007239 0.038561 0.022637
-0.037053 -0.020795 0.027217
-0.032424 0.030342 0.019485
-0.020061 0.003397 -0.037323
-0.028227 -0.026703 -0.034706
0.002821 0.041072 0.023258
0.027089 0.027562 0.026282
-0.009727 0.004027 -0.035660
0.030926 0.021799 -0.030473
0.027928 -0.025032 -0.019027
-0.030411 0.031933 0.019607
-0.017375 -0.027337 -0.038432
0.011096 0.037050 0.019759
-0.018601 0.038445 -0.017001
-0.021336 -0.030771 -0.038361
0.030613 -0.004759 -0.036087
-0.003638 0.041723 0.035356
-0.013400 0.026428 -0.036742
0.013192 0.023564 -0.038453
0.020023 -0.026907 -0.001240
0.006557 -0.038843 -0.006112
-0.011675 0.040471 -0.025164
-0.002824 0.006350 -0.035676
-0.006954 -0.044009 0.042141
0.057535 -0.000402 -0.018408
0.063684 -0.001492 -0.010413
-0.042054 0.013974 -0.015229
0.035890 -0.015344 0.041688
0.051196 0.001032 -0.022582
0.051248 -0.002100 0.027093
-0.017232 0.038120 0.034672
0.025676 0.027411 0.014574
0.016629 0.015764 -0.036746
0.007614 -0.038445 -0.013984
-0.036214 0.008863 -0.038571
-0.022702 -0.029666 -0.038494
0.013646 -0.036328 0.035612
0.052099 -0.006555 -0.016357
0.001406 -0.041505 0.041710
-0.008837 0.041205 0.004949
-0.027465 0.033576 -0.020922
-0.028681 0.031259 0.029572
-0.045292 -0.016320 0.042090
0.035847 -0.001086 0.011600
-0.010057 0.002360 -0.035790
0.035469 -0.006945 0.017899
0.050503 -0.007191 -0.017728
0.036881 -0.003661 -0.002857
-0.022937 0.035468 0.011323
-0.008335 -0.039925 0.020968
-0.046220 -0.005785 0.041877
-0.014995 0.012992 -0.035945
-0.034360 0.026074 0.035069
0.040795 -0.000875 0.029820
0.035445 -0.009974 -0.023768
0.035556 -0.003368 0.003386
-0.039962 -0.015624 0.003500
0.034271 -0.012072 0.028444
0.029395 -0.021653 0.037279
-0.014918 0.038551 0.026273
-0.032861 -0.027133 -0.032305
0.014406 0.035706 0.031241
-0.014588 0.029116 -0.038529
-0.044313 0.005374 0.019017
0.014862 -0.040259 0.039515
-0.015191 0.039935 0.005978
-0.028355 -0.026721 -0.036126
-0.043388 0.004500 0.034173
0.038102 -0.012933 0.039800
-0.037926 0.024974 0.039125
-0.043833 -0.004071 -0.027524
-0.038628 -0.018140 0.029904
0.008572 0.039349 -0.008123
0.033236 -0.026904 0.041113
-0.017129 0.039362 0.004866
0.024972 -0.011780 -0.037308
0.035708 0.005103 0.009556
-0.000577 0.004483 -0.037066
-0.038354 -0.018410 -0.034890
-0.027524 0.003874 -0.003793
0.025635 0.001619 -0.037375
0.030536 -0.025342 0.039730
-0.010038 0.029682 -0.036994
-0.041415 0.017086 0.001513
0.017435 0.035514 0.018454
-0.040260 0.011436 -0.034783
0.037267 0.019581 0.039433
0.034176 0.015998 -0.008470
-0.019263 0.038569 0.027268
0.032163 0.028700 0.041788
0.014552 -0.016171 -0.036927
0.022801 0.029999 0.033429
0.011295 -0.038610 0.039127
0.016822 -0.002053 -0.036421
0.024988 -0.028384 -0.003896
0.034658 0.015099 -0.001560
-0.014261 -0.037321 0.003707
-0.018420 -0.036206 0.037547
0.011089 0.038486 -0.027991
-0.044152 -0.004041 0.028060
0.002339 0.040779 -0.024077
-0.013626 0.032192 -0.038837
0.000478 0.043812 0.041997
-0.040666 -0.008502 -0.032548
0.015499 -0.036108 0.038254
0.013013 -0.036224 0.039844
-0.007159 0.008360 -0.035595
0.009078 0.037963 0.014373
-0.038424 -0.020930 0.000129
0.041387 0.000158 0.029826
0.000319 0.022743 -0.036171
-0.005453 -0.045576 0.040217
-0.044081 -0.001633 -0.019280
-0.002459 -0.040077 -0.007886
-0.038241 -0.022740 0.041441
-0.000859 0.041373 0.019500
-0.028571 -0.007464 -0.036987
-0.012327 -0.022374 -0.003521
0.033174 -0.014397 0.013712
-0.044204 -0.005520 0.008061
0.007217 0.039803 -0.002582
0.011798 0.026140 -0.037339
0.007985 -0.038202 -0.024032
-0.017207 0.022887 -0.038128
-0.001206 -0.038907 0.019669
0.025494 0.029116 0.003862
0.006892 -0.042837 0.041911
0.036938 0.005276 0.021980
-0.043265 -0.003148 0.019500
0.040682 -0.000348 -0.024471
-0.025203 0.035504 0.028189
-0.016110 0.039795 0.000292
0.034602 -0.014559 0.037632
0.038703 -0.007827 0.039936
0.027704 -0.025674 0.025297
0.035889 -0.007890 0.039596
0.026083 0.026076 -0.035776
-0.007382 0.041370 0.010695
0.047879 -0.002774 -0.023397
-0.027106 -0.039117 0.040423
0.032202 0.017928 0.017195
-0.029501 -0.020571 -0.038594
0.015152 0.036735 0.020041
-0.043822 -0.006503 0.023151
0.013614 0.031482 -0.037597
-0.042674 0.012264 -0.010257
0.038989 0.003193 0.041746
0.034801 -0.008563 0.014560
0.055179 -0.001296 -0.019519
-0.017039 0.039426 0.012511
0.032515 0.016933 0.030146
-0.012592 -0.032227 -0.037675
0.005769 -0.039121 0.007804
0.029632 -0.019528 -0.036090
0.042635 0.002032 0.026578
-0.015198 0.037576 -0.033877
-0.006828 -0.038665 0.000346
-0.038824 -0.014159 -0.033992
0.035859 0.009863 -0.018741
-0.013093 -0.038961 0.017989
-0.034427 0.026801 -0.031382
-0.031181 0.031342 0.026380
-0.017588 0.037773 0.036030
-0.020042 0.018893 -0.004523
0.041319 0.007124 0.039680
-0.014866 0.033879 -0.037258
-0.043611 0.011549 0.038546
-0.029592 0.030998 0.027276
-0.043229 -0.000004 -0.034967
0.057772 -0.005116 -0.010541
0.029655 -0.021124 0.021355
0.057960 -0.003955 0.021534
0.019574 -0.022238 -0.037756
0.021703 0.032346 -0.003320
-0.008866 0.028223 -0.036531
0.020440 0.015761 -0.038465
-0.014565 -0.001012 -0.037077
-0.043755 -0.007487 -0.000943
-0.034234 -0.012470 -0.037619
-0.006773 0.002276 -0.035685
-0.010427 0.028085 -0.036562
-0.030185 -0.032377 0.039584
0.011762 -0.041502 0.039469
-0.014836 0.038620 0.014141
0.009394 -0.036955 0.034063
-0.044837 0.000072 0.038430
0.008343 0.038375 0.035477
-0.013790 -0.032974 -0.034731
-0.039371 -0.019309 0.010898
-0.044188 -0.006277 0.038101
0.031314 -0.020653 0.033099
-0.033245 -0.002883 -0.038364
-0.008457 -0.028465 -0.037394
-0.008951 -0.039735 0.013718
0.017821 -0.013697 -0.036946
0.029023 -0.021334 -0.035661
-0.039268 0.021114 0.032342
0.015340 -0.035528 0.023254
0.001412 0.040935 -0.024120
0.041756 -0.005659 0.039866
-0.026942 0.029494 -0.037991
-0.040381 -0.015945 -0.023955
0.007383 0.038756 0.026216
-0.009428 0.008430 -0.035573
-0.032939 -0.027847 0.012994
-0.025443 -0.033415 0.039983
-0.044931 0.013407 0.041908
-0.042781 0.008465 0.005823
-0.042128 -0.013027 0.025126
0.001907 0.040883 -0.009869
-0.006355 0.005630 -0.035657
0.061188 0.002331 0.022429
-0.015113 -0.017434 -0.021197
-0.024513 -0.002883 -0.036312
0.036423 0.007568 -0.014980
0.027043 0.027403 0.018528
0.061803 -0.007616 0.019655
-0.003443 0.028801 -0.038207
0.007908 -0.033545 -0.038520
-0.007904 -0.041703 0.039791
-0.031486 0.029339 0.013322
-0.002285 0.007433 -0.035727
-0.037816 -0.021971 0.012651
-0.003920 0.042253 0.037904
0.029296 -0.023032 -0.012343
-0.005451 -0.023098 -0.037760
0.007977 -0.028871 -0.033986
0.015045 -0.035490 -0.019448
0.059573 -0.008124 0.012320
0.029396 -0.021191 0.003104
0.035278 -0.011100 -0.019841
0.012776 0.011529 -0.037671
0.017023 -0.034386 -0.014126
-0.032952 -0.027559 0.032227
-0.032600 0.010792 -0.038574
-0.002278 0.020784 -0.037463
0.009201 -0.036533 0.002768
-0.025501 -0.033672 -0.004959
-0.014719 0.001850 -0.035754
-0.001859 -0.006709 -0.037078
-0.027190 -0.032191 -0.030789
0.035840 -0.004788 0.020568
-0.029073 0.031983 0.040737
-0.013699 0.028544 -0.036900
0.025225 -0.028378 0.012751
-0.021109 0.037904 0.030377
-0.004268 0.040017 0.003735
0.007979 0.039743 0.015027
-0.024813 -0.010231 -0.036489
-0.022556 -0.035194 -0.007444
-0.025881 0.014700 -0.036755
-0.044292 -0.002635 -0.006428
0.035450 -0.007079 0.023611
-0.004809 -0.032982 -0.037700
0.006052 0.028854 -0.036978
0.011110 -0.037342 0.010555
0.025663 0.019782 -0.038704
-0.007947 -0.016325 -0.036016
0.011643 0.038396 0.000555
0.012549 -0.006935 -0.036484
-0.026161 0.033952 -0.033527
0.026582 -0.009564 -0.038806
-0.014928 0.039151 0.039826
0.001865 -0.036990 -0.036126
0.034695 0.011450 0.033696
0.026570 0.027476 0.040180
-0.023507 0.034985 0.031239
-0.012698 -0.037966 0.020816
0.003629 -0.039526 0.018484
0.054529 0.003064 0.026928
0.034460 0.015679 0.019586
0.035988 0.011949 0.040833
0.000611 0.020324 -0.037465
0.011586 0.010611 -0.036223
-0.038191 0.023067 0.024068
-0.001234 -0.027949 -0.038275
0.036367 -0.007474 0.003417
0.018585 -0.033508 0.011743
-0.017667 0.037775 0.006080
-0.036934 -0.022937 0.037215
0.022150 0.033106 0.041254
-0.029247 -0.029700 0.002291
0.064526 -0.003731 0.016280
-0.012811 0.002327 -0.035693
-0.034549 -0.027053 0.041349
0.037280 -0.001830 -0.026965
0.021716 0.025930 -0.038541
-0.015439 -0.038202 0.001972
-0.008437 0.040136 0.037996
0.027889 -0.025243 0.001221
0.043952 0.003483 -0.020281
0.055844 0.000576 -0.015271
0.006722 0.038932 0.021747
0.033762 -0.015917 0.029572
-0.043589 -0.008049 0.022552
-0.029927 -0.030607 0.005504
-0.015080 -0.037417 0.027223
-0.040437 0.011190 -0.034743
0.009734 0.019744 -0.036458
0.015293 0.005734 -0.036380
0.002349 -0.017534 -0.036327
-0.042912 -0.008715 -0.031187
0.008158 -0.033438 -0.034309
0.014037 0.032203 -0.037217
0.039927 0.004095 0.041963
0.024455 -0.031580 0.039473
-0.013524 -0.009425 -0.037197
0.001138 -0.011523 -0.036093
0.009280 -0.037980 -0.007021
0.005229 0.038773 0.003068
-0.030033 -0.024303 -0.038293
-0.030157 0.038892 0.040294
0.029840 0.024142 0.009536
-0.043216 -0.002456 0.024090
-0.005790 -0.040068 0.014236
0.030843 -0.019057 0.014647
0.031349 -0.018482 0.025553
-0.015279 0.024148 -0.036572
0.054602 -0.000498 -0.019095
0.058047 -0.003632 0.020153
0.031363 0.020774 -0.031791
-0.036071 -0.023559 -0.026788
0.004697 0.029259 -0.000150
-0.034546 -0.024975 -0.032182
-0.028194 0.009435 -0.038041
-0.042821 -0.010496 -0.008432
0.024807 0.027847 -0.035440
-0.009757 0.040880 -0.011050
-0.004221 0.041373 0.040483
0.007605 -0.026093 -0.037277
-0.005477 -0.038789 0.010421
-0.018905 0.015721 -0.036082
-0.037039 0.024701 0.029542
-0.048239 0.010934 0.039613
0.017980 0.041262 0.039795
0.013494 0.018380 -0.038026
-0.043728 0.001067 -0.033112
-0.041953 0.015615 0.019399
-0.016805 -0.040778 0.042168
0.001680 -0.021736 -0.036883
-0.019466 -0.026143 -0.037118
0.030344 -0.022087 0.017597
-0.031554 -0.027089 0.000795
-0.001125 0.041564 0.004940
-0.031943 0.030528 0.035190
0.001368 0.007618 -0.035801
0.035375 -0.005524 0.001003
-0.006637 -0.040042 -0.002640
-0.014833 0.041983 0.038981
0.010319 -0.017766 -0.036723
-0.047995 0.001316 0.041960
-0.026647 0.034732 -0.000388
-0.012615 -0.001036 -0.035966
-0.026025 -0.039403 0.039893
-0.008464 0.041947 0.041473
-0.044254 0.001276 -0.015001
0.027749 -0.023999 0.037512
0.023855 -0.027578 -0.035163
-0.046608 -0.002755 0.041881
0.031705 -0.018301 0.039148
0.015466 0.029739 -0.038754
-0.044430 -0.000499 0.034352
0.026165 -0.025680 0.018804
0.007988 -0.037657 0.037734
-0.022413 0.006066 -0.037497
-0.001006 -0.038991 0.007402
0.042767 0.001722 -0.020892
0.012317 0.043983 0.040877
-0.029749 -0.033555 0.041936
0.036204 -0.009669 0.029403
-0.021237 -0.017532 -0.036613
0.034461 0.015580 0.028042
-0.031883 -0.027449 0.013519
-0.001767 -0.029511 -0.038457
0.049668 0.005094 0.025169
0.015183 0.036870 0.024891
0.005988 0.020309 -0.037716
0.028765 -0.020605 -0.036544
-0.010171 0.040810 -0.011935
-0.026215 -0.033317 0.005291
0.022725 0.018253 -0.038750
0.010675 -0.037413 -0.006086
0.021795 0.030810 0.031068
0.005411 0.006663 -0.037159
-0.041378 -0.015344 0.013131
0.030390 0.023373 0.015758
0.013689 -0.036445 0.024480
0.014066 0.035982 0.016294
-0.042897 -0.006597 0.012647
-0.030309 0.032084 0.018747
-0.038389 -0.018582 0.035156
0.019287 -0.034293 0.038758
-0.036004 0.026005 0.031017
-0.025659 -0.033218 -0.030374
-0.042559 -0.011673 0.028245
-0.036319 -0.022909 -0.030411
0.060965 -0.002964 0.023484
0.017462 -0.033127 0.034190
0.033671 -0.016132 0.029011
0.031481 -0.020458 0.029385
-0.007368 0.040059 0.030287
-0.037650 -0.020066 0.009158
0.000439 0.046819 0.041030
-0.009157 -0.038678 0.030681
0.002940 0.040465 -0.032760
-0.044153 0.008674 0.038254
-0.034160 -0.002256 -0.038440
-0.005825 -0.039700 -0.030475
-0.036359 -0.023792 -0.002489
-0.044310 0.005095 0.020436
-0.017378 0.023473 -0.038131
0.035495 0.005238 -0.000080
0.004908 -0.029675 -0.037625
0.037136 -0.000955 0.004950
0.009346 0.000015 -0.036240
0.051158 -0.005473 0.028062
0.020909 -0.031868 -0.004122
-0.036245 -0.022107 0.028245
0.015629 0.027604 -0.038840
0.022579 -0.011784 -0.036866
0.000276 0.045518 0.039533
-0.040871 -0.012967 0.031019
0.035951 0.005570 0.029218
-0.004326 -0.038904 -0.000551
-0.042642 -0.011480 0.026795
0.027844 -0.018442 -0.038188
0.035186 -0.013427 0.038003
0.013732 0.008382 -0.037665
0.005750 -0.037976 0.028683
0.030931 0.020472 0.025986
0.008930 -0.038039 -0.017336
-0.016030 -0.000708 -0.035857
0.042201 -0.008046 -0.022118
-0.033041 0.029655 0.006313
-0.013995 -0.038782 0.000136
0.034378 -0.014209 0.002161
0.003708 -0.007251 -0.035907
-0.011816 -0.002393 -0.035764
0.016793 0.035710 -0.009076
0.020117 -0.038284 0.039546
-0.023236 -0.027573 -0.038657
0.033550 -0.013811 0.037401
-0.038081 0.032048 0.040944
0.016287 0.034518 0.001951
0.024710 -0.035795 0.040191
-0.011595 -0.039180 0.007173
0.049938 -0.000603 0.027391
-0.013228 -0.039151 0.032814
0.012038 0.033032 -0.037391
0.008686 0.039621 0.016976
-0.012555 -0.010371 -0.037187
-0.042097 0.012527 -0.032111
0.001819 -0.034363 -0.036419
0.017928 -0.033959 0.016375
-0.019024 -0.001855 -0.036061
0.022792 -0.028911 0.021440
-0.029991 -0.036152 0.041816
-0.042477 -0.007939 0.012493
0.035549 -0.004235 0.000048
0.018094 -0.033637 -0.015345
0.003492 0.016921 -0.037405
-0.038856 0.009386 0.001657
0.020937 -0.030862 0.032735
-0.013651 -0.038000 0.037096
0.026505 0.025303 -0.000117
0.031333 0.027904 0.042189
0.008377 -0.038050 -0.027087
-0.041509 -0.011589 0.011349
-0.044401 0.003942 0.027275
0.035435 -0.004983 0.001706
0.018198 -0.017597 -0.030514
0.047251 0.002141 -0.023619
-0.044148 0.006855 0.013648
-0.003047 0.037677 -0.038002
-0.004145 0.041396 -0.005539
0.033921 0.022262 0.041879
-0.040234 0.028859 0.039903
-0.002860 0.014479 -0.035670
-0.026040 0.010834 -0.036558
0.022871 -0.030494 0.034620
0.060283 -0.002002 -0.016223
0.013543 -0.007285 -0.036386
0.041481 0.004532 -0.023147
0.000276 -0.038852 0.018678
-0.040516 -0.016990 -0.001303
0.025362 -0.028192 0.017032
-0.020474 -0.036368 0.012809
-0.037335 -0.006703 -0.037311
-0.043825 -0.005258 -0.013654
0.013445 0.037280 -0.030854
-0.006118 -0.040022 0.010708
0.008035 0.039615 -0.002138
-0.001338 -0.001027 -0.035695
0.028229 -0.024452 -0.023771
-0.026722 -0.027300 -0.035384
0.025249 0.029354 -0.001863
0.019173 0.019189 -0.037150
-0.012814 0.040295 -0.017704
0.007444 -0.034748 0.001778
0.045907 -0.007750 0.027222
0.031954 0.020550 0.040506
0.026885 0.025542 0.003340
-0.024382 0.034430 0.004300
0.002465 0.001767 -0.037135
0.032273 -0.028225 0.040783
0.038358 0.019809 0.040343
0.032292 0.020218 0.021597
-0.035045 -0.024358 -0.032728
-0.038308 0.022914 0.021167
-0.009394 0.006985 -0.037052
0.050071 0.004526 0.026655
-0.039971 -0.018128 0.024636
-0.039789 -0.018167 0.034272
-0.018376 0.000290 -0.037203
0.048277 0.002131 0.028832
-0.011294 -0.039347 0.012966
-0.021546 0.024047 -0.038501
0.032347 -0.018779 0.024044
0.009727 0.002133 -0.035890
-0.038911 0.030928 0.040162
0.037251 0.005280 0.034487
0.037540 -0.002376 0.032245
0.035865 -0.004965 0.036206
0.010948 0.022860 -0.038210
-0.043303 -0.006996 -0.018935
-0.033580 0.029129 0.024912
-0.037972 -0.021664 0.009737
0.000099 0.029092 -0.038309
-0.014460 -0.007990 -0.037162
-0.002654 0.040254 -0.035191
0.011622 0.038257 -0.014496
0.034918 -0.008196 0.014530
0.015737 0.036467 -0.002680
0.033770 -0.015453 -0.001150
-0.020603 0.018788 -0.036542
0.008978 0.039579 0.031955
0.012103 -0.036893 0.040242
0.036253 0.000456 0.034909
-0.044479 -0.000876 0.035437
-0.022467 0.003997 -0.036162
-0.042294 0.023230 0.039684
0.018533 -0.033342 -0.019664
0.014502 0.035698 0.017114
-0.015007 0.009721 -0.035893
-0.028599 -0.031611 0.004125
-0.020936 0.043415 0.041264
-0.017108 0.039212 0.009191
0.005122 0.038939 0.005508
0.028314 -0.032396 0.039625
0.001773 0.043137 0.038936
-0.022090 -0.028625 -0.038683
0.030691 -0.012663 -0.037955
-0.023471 0.036434 -0.004174
-0.027082 -0.032698 0.002980
0.030462 0.023242 0.003144
0.005311 0.038999 0.007580
0.000103 0.046150 0.039500
0.009654 0.039455 0.030140
-0.009573 0.031697 -0.038679
0.040415 -0.001881 -0.025913
0.009481 -0.038136 0.027438
0.030948 0.022199 0.018820
0.005255 -0.034241 -0.037658
0.034769 0.014872 0.016822
-0.004453 0.046058 0.041875
0.018746 -0.031602 -0.035715
-0.006230 0.041546 0.035873
0.021244 -0.026997 -0.038152
0.009276 -0.037891 -0.010392
0.050911 -0.008418 0.024257
-0.030111 -0.030455 0.012021
0.036949 0.002325 -0.008243
-0.033404 0.030704 0.039018
-0.042496 -0.011663 0.035725
-0.016754 0.007087 -0.037218
-0.037187 -0.020998 0.016255
-0.043967 0.007467 0.005714
0.002416 -0.039563 -0.006927
0.040469 -0.008570 0.025887
0.004123 -0.038202 0.009945
-0.044037 -0.002668 -0.021470
0.048215 0.002462 -0.022974
-0.010156 -0.041454 0.039737
0.061955 -0.007448 -0.010093
-0.038456 0.022622 0.029278
0.000760 -0.038665 0.007726
0.003182 0.025358 -0.036578
0.014918 -0.027302 -0.038940
-0.031458 -0.029162 -0.009945
-0.038364 -0.004204 -0.036929
-0.028462 -0.037091 0.039549
0.010274 -0.035028 -0.037134
0.019015 0.034359 -0.012544
0.020470 0.030438 -0.036862
0.003865 0.009166 -0.035754
0.013821 0.002483 -0.036264
-0.020655 -0.036384 0.034427
0.035316 0.008699 0.018207
-0.036217 -0.024056 0.003164
0.004501 -0.038074 0.008712
-0.042572 -0.005968 -0.034759
0.015951 -0.033537 -0.035610
0.023153 -0.014600 -0.038719
0.043538 -0.003867 -0.023601
0.000678 -0.033673 -0.037578
0.051384 -0.004756 -0.021243
0.034250 0.013003 0.007376
0.033186 -0.015297 0.035384
-0.024740 -0.025779 -0.037366
0.011668 0.029964 -0.038839
0.011344 0.036527 -0.036307
-0.038535 0.007022 -0.037298
0.061748 -0.000917 0.022619
-0.043498 0.007481 -0.024126
0.021559 -0.031291 -0.011444
0.001351 0.039744 0.005838
0.031805 0.021020 0.021896
0.019783 -0.004789 -0.037907
0.028202 0.032790 0.041919
0.026063 0.028573 -0.010252
0.058494 0.004609 0.022076
-0.046001 0.010818 0.041921
-0.032227 -0.007825 -0.037090
0.010196 -0.035922 0.002183
-0.009911 0.037520 -0.032158
0.036124 0.001999 0.017579
0.002988 0.039707 0.030339
-0.042004 0.015331 0.013312
-0.026798 0.034606 -0.001935
0.040425 0.006962 0.039782
-0.043532 0.010264 0.008663
-0.007554 -0.006408 -0.035769
0.036029 0.001069 0.016702
0.019261 0.034458 0.009940
-0.010838 0.008506 -0.035831
0.007711 0.039580 -0.030152
0.017007 -0.034572 0.011898
-0.025821 0.017686 -0.038297
-0.043137 -0.004351 0.034661
0.005149 0.040290 -0.017628
0.039519 0.007517 0.041950
0.007753 0.016000 -0.037599
0.028781 0.025302 -0.012013
0.012155 -0.036815 -0.003248
0.036485 -0.005533 -0.009932
-0.021925 -0.035741 0.020531
-0.041988 -0.003164 -0.036602
-0.008020 -0.010160 -0.037108
0.033446 -0.014506 0.028993
0.038624 -0.008478 0.026690
-0.032414 0.021703 -0.032495
-0.025522 -0.018812 -0.038164
-0.012346 0.040786 0.034978
-0.043408 -0.001274 0.036351
0.062400 -0.008663 -0.000478
-0.015877 -0.012010 -0.037271
-0.034766 -0.023756 0.033631
-0.040714 0.014989 0.004298
-0.035588 -0.023329 0.012757
0.023870 -0.028110 0.024435
0.009141 -0.005018 -0.035939
-0.048577 -0.002481 0.042016
-0.039844 -0.028135 0.040575
0.022393 0.031846 -0.012416
-0.011268 0.040610 -0.029511
0.035321 -0.007819 0.023707
-0.015278 0.001474 -0.035934
-0.038288 0.022712 0.025792
0.034526 -0.022547 0.041965
-0.026890 -0.012974 -0.037854
0.023730 -0.029681 0.009412
0.034471 -0.014529 0.035905
0.020530 0.031767 0.011584
-0.008429 0.041051 -0.029325
0.036733 -0.008209 -0.023470
-0.020054 -0.027439 -0.037678
-0.038829 -0.017827 0.012645
-0.030097 -0.033033 0.041989
-0.012339 -0.038071 0.036883
0.031652 -0.019572 -0.010600
-0.016895 0.036865 -0.034071
0.024829 0.029673 -0.003296
-0.038043 -0.021109 -0.012200
-0.017749 0.038736 -0.022371
0.040539 -0.004420 -0.023607
0.021725 -0.031225 0.014122
0.001735 0.039300 0.001641
0.028194 0.016833 -0.038518
0.026128 0.026737 0.010160
0.003336 -0.039150 -0.030819
0.023372 -0.028469 0.036660
-0.025333 -0.032560 0.020508
-0.040091 0.022171 0.039403
-0.040866 -0.007533 -0.036978
0.029386 0.024257 -0.017776
0.019811 0.033772 -0.025514
-0.040907 -0.019834 0.041904
-0.029798 0.011797 -0.038309
0.037268 -0.000786 0.033579
0.006240 -0.039596 0.041182
-0.035865 -0.024599 0.010472
0.040887 0.002658 0.025864
0.022872 0.024813 -0.037167
-0.017279 -0.022933 -0.030002
-0.010363 -0.023157 -0.036458
-0.014972 -0.010996 -0.037230
-0.033447 0.027073 -0.034475
0.026365 -0.027105 0.007015
0.037064 -0.001358 -0.004532
0.010222 -0.024442 -0.037215
-0.043383 -0.006583 -0.029708
0.007573 -0.038558 -0.003565
0.034977 -0.012037 -0.013261
-0.010651 -0.039523 0.040545
-0.039375 -0.017095 0.011694
0.026332 0.010808 -0.037500
-0.016410 0.039639 0.031838
-0.016951 -0.035277 -0.035801
-0.042968 -0.023512 0.040800
0.025684 0.027196 0.023623
-0.012340 -0.032668 -0.037762
-0.043530 -0.008485 0.014327
0.027056 -0.026024 -0.014654
-0.012560 0.040657 0.030859
-0.018380 -0.022841 -0.038016
0.051516 -0.005531 0.027999
0.034619 0.014310 -0.020666
0.034530 -0.013072 -0.022981
-0.025023 0.040013 0.042133
-0.035708 -0.016164 -0.036027
0.025951 -0.027473 0.001153
0.031110 -0.019167 -0.033769
0.032134 -0.018792 -0.018841
-0.025341 -0.032638 0.007221
0.023539 0.029187 0.026736
0.023406 0.019843 -0.031379
0.033012 -0.013990 0.003150
-0.026244 -0.017670 -0.037024
-0.045319 -0.001023 0.038854
-0.044106 0.007058 0.008552
0.004183 0.040732 0.009608
0.002007 -0.038730 0.017261
-0.019148 -0.028091 0.001787
-0.035039 -0.004720 -0.038542
0.016991 0.008211 -0.037805
0.011596 0.037177 0.024278
-0.034376 -0.026488 0.016436
-0.019158 0.036358 0.001108
-0.045713 0.000125 0.039234
-0.011788 0.041551 0.038121
-0.003555 0.006411 -0.036999
-0.038196 0.021824 -0.021204
-0.033043 -0.027291 -0.022957
0.005145 -0.019750 -0.037680
0.002937 -0.039705 0.022421
0.033626 0.016779 -0.018244
-0.038147 -0.008944 -0.038365
-0.025000 0.035828 0.041135
-0.013685 0.040412 0.029699
0.006657 0.040054 0.006975
-0.034083 0.028682 0.016442
-0.035085 0.027306 0.021870
-0.045334 0.007125 0.039492
-0.017430 -0.036589 0.019439
-0.023300 -0.034978 -0.001844
-0.037413 0.007563 -0.037368
0.020205 -0.034575 0.041672
-0.034061 -0.026750 0.015519
-0.007309 0.026031 -0.036272
-0.039727 0.019397 -0.019649
-0.001135 0.040259 0.025356
-0.021566 -0.034295 0.003311
-0.027514 -0.032351 0.035996
0.034297 0.012685 0.022056
-0.011829 -0.039416 0.028385
-0.037966 0.010663 -0.033466
-0.025010 -0.034711 0.041056
0.027671 0.024053 -0.035987
-0.038787 -0.018081 0.014549
-0.042144 0.010044 0.002719
0.062754 -0.004204 -0.011911
-0.042410 0.012619 -0.027098
0.015731 0.042451 0.040084
0.000572 -0.039891 -0.002732
0.000495 0.024235 -0.036355
-0.003545 0.011878 -0.035687
0.005315 -0.038929 -0.020811
0.003452 0.042304 0.041709
-0.016819 -0.005566 -0.035911
-0.038749 0.022351 0.014457
-0.033117 -0.027763 0.003837
-0.018983 -0.026294 -0.036956
0.001592 0.044603 0.039560
-0.013876 0.013492 -0.035789
-0.017908 0.012644 -0.037516
-0.034806 -0.011360 -0.037752
0.004784 0.037951 -0.034598
0.037183 -0.000298 0.015137
-0.024651 0.034053 -0.035281
0.055071 -0.000854 0.026043
0.036941 -0.003346 0.033744
-0.010468 -0.034789 -0.037397
0.054476 -0.005484 -0.017666
0.006498 -0.042304 0.042079
-0.037087 0.026655 0.039269
0.054830 -0.000551 -0.020886
-0.030022 0.004906 -0.036819
0.019494 0.019071 -0.037177
0.008079 0.032500 -0.037373
-0.044319 0.001250 -0.019098
0.026436 -0.025487 0.031954
0.035560 -0.006332 0.008938
-0.015600 -0.010339 -0.037237
0.004232 0.001843 -0.037147
-0.003150 0.006432 -0.035702
-0.028272 -0.022147 -0.038656
0.007576 0.005429 -0.035822
-0.033799 0.027127 -0.033455
0.011630 -0.027858 -0.038873
0.041850 0.005352 0.041359
-0.022209 -0.034338 0.023667
-0.036616 -0.023740 0.006450
-0.041114 -0.012814 0.011669
-0.008337 -0.043545 0.042195
-0.011634 0.039173 0.005850
0.001849 -0.038641 0.026084
-0.000093 0.006117 -0.035770
-0.033097 -0.027740 0.013346
0.033645 -0.013495 0.022792
-0.003904 0.009904 -0.035562
-0.001278 0.044566 0.042104
0.031794 -0.022529 0.041553
0.030146 0.021714 0.009270
-0.008135 0.046809 0.040356
0.010923 0.036360 -0.034383
0.040165 0.015203 0.039851
0.000510 0.041321 0.008042
0.001308 -0.022428 -0.036896
-0.001861 -0.040175 0.026045
0.008985 0.039299 -0.016008
-0.036384 -0.000640 0.001339
-0.017517 -0.036558 0.024834
0.019951 -0.031921 -0.032089
-0.016190 0.012974 -0.037376
-0.013516 -0.037647 0.010048
-0.041158 -0.015442 0.028067
0.021634 0.008786 -0.037226
-0.002966 -0.017185 -0.036257
0.033835 0.021184 0.041835
-0.029010 -0.029868 0.031128
0.000020 0.041420 0.007941
0.030983 -0.020568 -0.015584
-0.010251 -0.039608 0.028482
-0.017372 0.011277 -0.035935
0.008962 0.009248 -0.036067
-0.000478 0.005475 -0.037061
-0.007494 0.029636 -0.038426
-0.031297 0.029126 0.001375
0.014187 -0.023723 -0.038640
-0.008346 -0.039939 0.029366
-0.008901 -0.012430 -0.035920
-0.026314 -0.032038 0.004826
0.042299 0.003428 0.041076
0.036169 0.021881 0.039411
-0.016668 0.042827 0.042096
0.039972 -0.006993 0.028449
0.012901 0.040342 0.039273
0.035792 0.011973 0.021036
-0.043469 0.000044 0.032494
-0.027263 0.032744 0.026375
-0.006438 -0.024099 -0.037821
0.035722 -0.003640 -0.000830
0.003966 -0.038349 0.020173
0.009460 0.020239 -0.037904
0.029490 -0.023339 0.021739
-0.041222 -0.012967 0.018507
-0.011807 -0.039057 -0.015982
-0.041386 0.017004 0.000803
-0.016507 -0.000550 -0.035859
0.034342 0.012430 0.016768
0.036127 0.001122 0.034851
-0.013182 -0.039056 0.040763
-0.012714 0.040298 -0.021537
0.034731 0.015014 0.031665
-0.043259 -0.007500 -0.019017
-0.042621 0.019072 0.039827
0.022165 0.030147 0.000209
-0.000429 -0.014698 -0.037324
-0.010258 0.039783 0.034369
0.013101 0.037260 -0.032918
-0.035858 -0.013578 -0.038475
-0.024714 -0.004856 -0.036459
0.032727 -0.016810 -0.031658
-0.003037 -0.039195 0.035437
-0.006879 -0.040051 0.029813
-0.043390 -0.000638 0.011779
0.023383 0.018158 -0.037787
-0.024370 0.020543 -0.037105
-0.018254 0.015865 -0.037621
-0.014391 -0.041878 0.042125
0.015117 0.035570 0.038222
0.025295 -0.028418 0.035315
0.064036 -0.000666 0.018260
0.038137 0.004903 -0.022598
-0.034337 -0.026299 -0.001371
0.061633 0.003322 0.009197
0.021341 0.024710 -0.038759
-0.033100 0.028754 -0.016945
-0.043187 0.005414 0.005499
0.052182 -0.005099 -0.020562
0.015685 -0.033559 0.000224
0.026875 0.031167 0.039491
0.011172 0.038961 0.035981
-0.042075 -0.010493 0.039363
0.034077 0.016352 0.027678
0.031879 0.018178 0.009349
0.006009 -0.038890 -0.018213
0.015200 0.035511 0.024205
-0.035960 0.026174 -0.001114
0.013563 -0.027883 -0.037459
-0.043751 -0.007680 0.013679
-0.001213 -0.039875 -0.023110
0.022051 0.032097 -0.014686
0.037846 0.015022 0.041932
-0.031261 0.023207 -0.032507
-0.027607 -0.032068 -0.020765
0.021335 -0.022895 -0.037268
-0.000423 -0.040100 0.029418
0.025198 0.018454 -0.038845
-0.002960 -0.017736 -0.037408
0.030061 -0.022089 0.039996
0.050089 0.003758 -0.019391
-0.022189 0.036937 -0.018966
0.029902 -0.005551 -0.038896
0.005661 0.003859 -0.037146
0.014344 0.035946 0.037045
0.023441 -0.029670 -0.020499
-0.012787 0.026148 -0.038210
-0.019422 0.037425 0.039409
0.034039 0.007683 -0.036920
-0.021888 -0.035862 0.033755
0.031606 -0.019769 -0.008131
0.003299 -0.039305 -0.024748
0.010929 0.009553 -0.036076
0.028919 -0.024017 0.006734
-0.011635 -0.028900 -0.038485
0.025911 -0.027640 0.016718
-0.019714 -0.003520 -0.036015
0.032525 -0.016148 0.035072
-0.004344 -0.045739 0.040713
0.035683 0.006700 0.025428
-0.004202 0.001818 -0.035715
0.034445 -0.013276 -0.022627
-0.041885 0.025582 0.041718
-0.043209 0.020299 0.042099
0.024147 -0.027836 0.028424
-0.026477 -0.033177 0.003459
-0.033905 0.024107 -0.036958
0.004634 -0.027814 -0.038409
0.002119 -0.044533 0.039434
0.011001 -0.017390 -0.037855
0.035904 -0.005014 0.024767
0.015105 0.036744 0.019569
0.036777 0.002951 -0.017411
-0.000899 0.037476 -0.038127
-0.017014 0.037989 0.007718
-0.023475 -0.034861 0.036216
0.000833 -0.044385 0.039460
0.024186 -0.029349 -0.002890
0.000967 0.037809 0.000918
-0.017323 0.039381 -0.003457
0.023371 -0.024073 -0.038396
-0.041873 -0.010771 0.013920
0.015570 0.036497 -0.008773
-0.041576 0.013056 0.008016
-0.030957 -0.036702 0.040175
-0.013025 -0.039635 0.041177
0.029589 0.022110 0.028730
-0.040018 -0.018081 0.015190
0.038110 0.020116 0.040207
0.034423 0.016974 0.037717
0.011194 0.036006 -0.035163
0.035564 0.007662 0.024135
0.005641 -0.039312 0.026603
-0.005683 -0.039031 0.020332
-0.009568 -0.009959 -0.035928
0.016888 0.034319 0.019894
-0.025616 -0.033695 0.034107
0.026203 -0.025789 0.016140
0.032798 -0.018053 0.035741
-0.044177 -0.000325 -0.024541
0.030865 -0.019124 0.018263
0.011350 -0.012931 -0.037650
0.015828 -0.034911 -0.014877
-0.043282 0.011212 0.034307
-0.035390 -0.025097 0.003617
0.019612 0.034135 0.018045
-0.041154 0.013634 0.031487
0.003602 -0.039128 -0.028868
-0.014916 0.030029 -0.037222
0.025679 0.027204 0.031753
-0.011950 -0.038142 0.025095
-0.008464 0.036808 -0.036662
0.037661 0.003468 -0.021561
-0.012791 0.043008 0.042109
0.028459 0.025901 0.016325
0.037346 0.002635 0.022409
0.025760 -0.024746 -0.001480
-0.018625 -0.039405 0.041972
-0.044516 0.001735 0.012005
-0.012738 0.040566 0.029332
-0.043969 -0.006828 0.037151
-0.003496 0.029104 -0.038235
0.004873 -0.023783 -0.036923
0.033106 0.018629 0.016370
-0.044174 0.000109 -0.026568
0.018822 0.033246 0.006537
0.008293 0.036030 -0.036479
-0.040525 -0.016061 -0.019135
0.012527 0.038025 0.000919
0.064825 0.003171 -0.001526
0.006349 -0.038787 0.014764
0.018919 -0.032930 -0.025249
0.035205 -0.004691 -0.036061
0.010580 -0.035759 0.002066
-0.010129 -0.028535 -0.037373
0.015714 0.036479 0.028358
0.011963 0.036854 0.011136
-0.012867 -0.001042 -0.035930
-0.018640 -0.017135 -0.036505
-0.022011 -0.035579 -0.017649
0.015887 -0.005692 -0.036662
0.031679 -0.000688 -0.001013
0.037554 0.000688 0.031824
-0.010774 0.023139 -0.037836
0.059870 -0.001067 0.024962
-0.025924 0.033550 0.002559
-0.011276 -0.039415 0.017138
0.056409 0.001868 -0.018571
0.037374 0.001503 0.037218
-0.004504 -0.013194 -0.037149
0.045378 -0.002198 0.029376
0.023173 -0.028863 0.037522
0.007751 0.038567 0.025047
0.015841 -0.009234 -0.036742
0.033578 -0.013826 0.012304
-0.032806 -0.028335 0.038387
0.011331 -0.038068 0.038606
0.005875 -0.039047 0.016125
0.017727 -0.030533 -0.037697
-0.002538 0.041559 0.003195
0.035951 0.010317 -0.006669
0.011296 -0.041768 0.039475
0.005326 -0.018861 -0.036675
-0.019984 -0.035873 0.039402
0.031307 -0.010618 -0.037027
0.006739 0.040368 0.026845
-0.014412 -0.038620 -0.002667
0.015678 0.036596 0.004915
0.003652 0.046461 0.040010
-0.024635 -0.017615 -0.037943
0.016095 0.029560 -0.038713
-0.015055 0.045602 0.040273
0.065471 -0.006189 0.010096
0.020293 -0.030723 0.001656
0.004695 0.015098 -0.035854
0.054565 -0.008079 0.022040
-0.020886 -0.033456 -0.036991
0.032962 0.016601 0.005773
0.024423 0.030039 -0.003932
-0.021436 -0.021758 -0.037171
0.003406 0.040723 0.000683
-0.043753 -0.006146 -0.009078
-0.029091 0.038446 0.039611
-0.035270 -0.024496 -0.026910
-0.007160 0.021005 -0.035847
0.031954 0.020764 -0.000414
0.004015 -0.003654 -0.035899
0.011913 -0.005253 -0.037509
-0.044533 -0.001267 0.015297
0.035414 0.011192 -0.027962
0.001412 -0.000341 -0.037100
0.025173 -0.027035 0.013449
0.019289 0.014705 -0.036991
-0.039217 0.020195 -0.021783
-0.030547 0.029901 0.037776
-0.012118 -0.033129 -0.037830
-0.011044 -0.022799 -0.037773
0.055789 -0.000280 0.025385
0.034446 -0.011562 0.031899
0.014509 -0.005931 -0.037565
0.018193 0.034911 -0.017975
-0.024217 0.036177 0.028431
0.023511 -0.028297 0.006466
0.057705 0.002608 0.025612
-0.018670 -0.037129 0.040329
-0.032476 0.030120 -0.000514
0.056875 -0.004139 0.026808
-0.028099 0.031971 0.037764
0.035630 -0.012804 0.038564
-0.008505 -0.036405 -0.036026
0.003213 -0.018456 -0.008923
-0.009461 -0.038510 0.002376
-0.047387 0.003941 0.041899
0.030886 0.005773 -0.037737
-0.029564 -0.003030 -0.036888
-0.000219 -0.019678 -0.019135
0.013086 -0.036462 0.003456
-0.009592 0.038508 -0.036982
-0.042247 0.014790 0.010071
-0.043364 0.010538 0.027971
-0.027254 -0.019722 -0.037568
0.004548 0.021309 -0.036140
-0.006300 0.040104 0.011691
0.040048 -0.008684 0.041930
0.013187 0.037752 -0.004358
-0.024641 0.004624 -0.036458
0.032052 -0.025262 0.039771
-0.015963 0.036678 -0.035343
0.042539 0.004569 -0.021883
-0.016790 -0.037886 0.003029
-0.016158 0.037629 -0.036107
0.013821 0.036524 0.039586
-0.043004 -0.010415 -0.000685
0.012874 0.037896 0.019180
-0.040968 -0.019797 0.039632
-0.034225 -0.030745 0.039825
-0.010992 -0.038260 0.015044
0.011715 0.005552 -0.035943
-0.005939 -0.038939 0.024502
0.016856 0.035865 0.013747
-0.042072 -0.015290 0.041291
0.035572 0.006226 0.006073
0.000563 0.002978 -0.037085
0.012771 0.037945 0.008781
0.009684 0.038026 0.022620
0.006201 0.040092 0.040610
-0.046220 0.008096 0.041938
-0.022930 0.037231 0.037589
0.038828 0.004210 0.041696
0.028537 0.025748 0.022770
-0.037755 0.011572 -0.037068
0.029982 0.007517 -0.037657
-0.019380 0.009828 -0.037415
-0.032023 -0.021841 -0.038283
-0.010032 0.013925 -0.035756
-0.039346 0.021182 0.029502
0.034036 0.016745 -0.002924
-0.008234 0.041264 0.018354
0.032410 -0.016499 0.023643
0.065264 -0.004723 0.012903
-0.045249 -0.014765 0.042117
0.048447 -0.005907 0.028160
-0.020779 0.028139 -0.038728
0.004179 -0.039380 -0.002647
-0.007240 -0.039755 -0.021683
-0.043298 -0.009622 0.010089
-0.004690 -0.036360 -0.038203
0.023559 -0.029846 0.019009
-0.039008 -0.019582 -0.010076
-0.039246 0.020061 -0.020667
0.007934 0.031491 -0.037555
-0.030728 0.029167 -0.035447
-0.007990 0.003221 -0.037030
-0.039116 -0.016910 0.002352
-0.036592 0.008176 -0.037649
-0.018854 0.024747 -0.038289
-0.006481 -0.040268 0.041079
0.004326 -0.038401 0.029950
0.035754 0.003207 -0.034870
-0.031567 -0.018957 -0.038593
-0.039663 -0.016400 0.015619
-0.020239 0.038074 0.028432
-0.034752 -0.025880 0.002429
-0.004694 -0.035836 -0.038363
0.001735 -0.039920 0.032882
0.030454 0.023185 0.007019
-0.003894 -0.035230 -0.037574
0.005540 0.014035 -0.035987
-0.028517 0.033488 0.004060
-0.025017 0.035383 -0.017709
0.005744 -0.001922 -0.035985
0.046888 -0.005102 0.025510
0.023808 0.027353 -0.034310
-0.036444 0.026664 0.041531
0.016977 0.034353 0.005645
-0.023779 -0.035061 0.040812
0.037202 -0.000773 0.011782
0.046803 -0.006687 -0.023277
-0.043072 -0.008581 -0.019983
-0.040860 0.018165 -0.003143
0.058025 -0.005062 0.025727
-0.032899 0.018614 -0.038643
0.025910 -0.004099 -0.038563
-0.001084 0.041414 0.000954
-0.024855 0.034222 0.037395
-0.034299 0.028162 0.030413
0.060932 0.004223 0.015767
-0.039219 -0.017347 0.006378
-0.028782 -0.019773 -0.038586
-0.046728 -0.015466 0.041459
-0.018810 0.037322 0.030094
-0.017819 -0.033983 -0.036782
0.014060 -0.036055 0.005277
0.020417 -0.031922 -0.025084
0.009989 0.040522 0.038396
0.035012 0.007086 -0.000896
-0.030123 -0.030672 0.040868
-0.038746 -0.018729 0.039434
-0.032746 0.001599 -0.029568
0.038278 0.004646 -0.022274
0.022257 0.032023 0.036122
0.029752 -0.022359 -0.021656
0.032169 0.019766 -0.021358
-0.026987 -0.032705 0.011006
0.062961 -0.006537 -0.009584
0.035275 -0.008313 0.029585
-0.015407 -0.007608 -0.035959
-0.015651 -0.043961 0.040584
-0.005372 -0.032244 -0.038753
-0.037999 0.004733 -0.037569
-0.011840 -0.010284 -0.036110
-0.036841 -0.023077 -0.008496
-0.042056 -0.012145 -0.018616
0.000754 -0.040638 0.041233
-0.012813 -0.023795 -0.037844
-0.031453 -0.028852 -0.020242
0.024928 0.030066 0.033296
-0.011211 0.040905 0.003941
0.014734 -0.034222 0.005991
0.010365 0.037757 0.030619
0.026734 -0.024858 0.001674
-0.036170 0.025631 -0.007082
0.034531 0.011819 0.016714
0.008566 0.040074 0.037072
-0.029306 -0.022108 -0.036902
-0.033184 0.028357 -0.030142
0.035128 0.013216 -0.007286
-0.019079 0.028708 -0.038711
0.047362 0.002339 0.028901
0.005466 0.018027 -0.037528
-0.040337 0.016127 0.024264
-0.028153 -0.030236 0.001486
-0.043724 -0.004634 -0.025993
-0.044864 0.000562 0.038432
0.017912 -0.033894 -0.011233
-0.009915 -0.014138 -0.037198
0.026749 0.026015 0.026169
-0.029493 -0.013819 -0.037350
0.025896 -0.018232 -0.037787
0.014699 -0.036927 0.038820
0.036469 0.008205 0.020049
-0.002166 0.040283 0.034666
0.036119 0.004514 0.038076
-0.030724 0.030011 0.021762
0.046400 -0.001407 -0.024718
0.020910 0.031603 0.002223
0.054501 -0.006578 -0.019771
0.033035 0.015918 0.026982
0.008677 0.039368 -0.002891
-0.003379 -0.000125 -0.035806
-0.002993 -0.036834 -0.001002
-0.011440 -0.038158 0.014951
-0.015445 0.037396 -0.032606
-0.013036 -0.039007 0.019366
-0.031873 0.030216 -0.016578
-0.033502 0.016444 -0.038681
0.016422 0.007753 -0.037737
-0.034179 0.026739 0.003330
-0.041552 0.016820 0.004208
-0.012711 -0.038890 -0.014168
-0.041375 0.016703 0.032219
-0.011643 0.039447 0.019448
-0.015587 0.005108 -0.035766
-0.011128 -0.003245 -0.035748
0.017895 0.038531 0.042112
-0.043339 -0.008691 0.034894
0.064234 -0.008329 -0.001033
-0.003752 -0.014613 -0.037273
0.000792 -0.041768 0.039696
0.038136 -0.000110 0.022082
-0.020875 -0.036221 0.006960
0.029612 -0.023098 0.014032
-0.000300 0.027953 -0.036588
-0.018288 0.037273 0.003870
0.007708 -0.038450 0.004674
-0.030515 0.028085 -0.033753
-0.026114 0.037931 0.042139
0.008568 -0.006119 -0.036162
-0.013234 -0.019169 -0.036450
0.032476 -0.027125 0.041557
0.011971 0.010781 -0.036284
-0.035006 -0.025654 0.020870
-0.000658 0.036644 -0.038395
-0.044521 0.002161 0.029977
-0.006686 -0.038655 0.002346
-0.032088 0.028738 0.020007
0.021397 0.032905 0.020302
0.020743 -0.031375 -0.031308
-0.010542 0.041065 0.022956
-0.008877 0.041237 0.024257
-0.027683 -0.028747 -0.034512
-0.042843 0.008847 0.011036
0.018303 0.031554 -0.037377
-0.042013 -0.013556 0.003727
0.009213 0.010786 -0.037442
-0.023663 -0.034799 0.025237
0.013371 0.037616 0.008402
0.036872 0.000914 0.039725
0.030893 -0.018891 0.011138
-0.001940 -0.021602 -0.037671
0.036763 -0.004020 -0.008621
-0.007836 -0.004502 -0.035761
-0.025713 0.009427 -0.037826
-0.004157 0.041326 -0.014834
-0.037827 -0.027408 0.042097
-0.007551 0.041348 0.006276
-0.021203 -0.036107 0.022743
0.029642 0.024221 -0.005737
0.028334 0.006949 -0.037839
0.018263 0.034957 -0.000409
0.027319 -0.022557 -0.000695
-0.015433 -0.038052 -0.027168
-0.001919 0.041518 0.027682
0.052121 -0.008578 0.025101
0.038946 0.012707 0.039663
0.028284 0.023591 0.032643
-0.021119 -0.022227 -0.038076
-0.017520 0.037731 0.011270
