-0.047334 -0.000764 -0.049198
0.039759 0.012001 0.029578
-0.050310 -0.000263 0.007593
0.033876 0.025242 0.016253
0.044881 0.011783 0.026530
-0.012018 -0.026791 0.029539
-0.009875 0.024442 0.021589
0.010090 0.000511 0.031105
0.016669 -0.024304 -0.009533
0.043413 0.001820 -0.049237
0.045960 0.009938 0.030770
0.035676 -0.022363 -0.020901
0.021769 -0.021214 0.029570
0.040956 0.020017 0.022351
-0.050100 -0.001699 0.020796
0.031544 -0.025014 0.029918
0.045191 0.004610 -0.033920
-0.030009 0.024350 0.030484
-0.033534 -0.002463 0.029208
-0.049026 0.019602 0.032255
0.033748 0.025292 0.029984
0.037501 0.012919 0.029671
-0.038623 0.022464 -0.038577
-0.045447 -0.012127 -0.048517
0.014611 -0.024721 -0.047542
-0.029257 0.021439 0.029908
-0.005512 0.024935 -0.042852
-0.026015 0.023439 -0.007872
-0.032185 -0.023859 0.029702
0.023535 0.022558 0.029520
0.041290 -0.003671 -0.047793
-0.025140 -0.027401 0.017992
0.047515 -0.011326 0.029710
-0.034841 0.023062 -0.018363
-0.046863 -0.024967 0.033036
0.037770 -0.021344 -0.027846
0.015062 0.006685 0.028772
-0.020346 0.013567 0.029154
-0.005169 -0.025547 -0.014968
-0.035558 0.023067 -0.030723
0.015086 0.025630 -0.003267
-0.051406 0.008919 0.032744
-0.032011 0.023121 -0.005939
0.026602 0.027209 -0.042294
-0.049238 -0.020321 0.029966
0.043288 0.022750 0.030981
0.020749 -0.024552 0.012512
0.023709 -0.024823 0.025746
0.045667 -0.001089 -0.046106
-0.027173 -0.028354 0.031245
-0.020197 -0.003346 0.028575
-0.047235 -0.017731 0.030153
0.012039 -0.024935 0.009164
0.032671 -0.017943 0.029959
0.026985 -0.009929 0.030965
0.038800 0.014513 -0.048242
0.033583 0.025366 0.021770
-0.030241 0.025321 0.030189
0.044917 0.008906 0.000426
-0.045673 -0.021146 -0.025156
-0.040244 0.021792 -0.014834
0.044429 0.012356 -0.035167
-0.049769 -0.008015 0.002796
0.003346 0.009701 0.028610
-0.013189 -0.026290 -0.005985
0.034932 -0.018289 0.031095
0.044064 -0.014951 0.011529
-0.025319 -0.027055 -0.036888
0.046090 -0.001179 0.026584
-0.035356 0.002631 0.029359
-0.050843 -0.002981 0.030554
-0.009314 0.025881 0.032837
-0.027769 -0.001139 0.028776
-0.046420 -0.014733 -0.049422
-0.028499 -0.019735 0.029545
-0.030575 0.023414 0.022008
0.036774 -0.021955 -0.019835
0.015623 0.025669 0.016483
0.015932 0.025878 -0.015042
0.044715 0.002227 -0.046646
-0.026186 0.023490 -0.037374
-0.044149 0.019586 -0.025313
-0.036217 0.022876 -0.002910
-0.004000 -0.025365 -0.020235
0.042883 -0.017284 0.017073
-0.014422 -0.029535 0.032942
-0.002936 -0.026074 0.020725
-0.042753 0.020556 -0.029889
0.001695 -0.025563 -0.042907
0.029760 -0.001461 0.028970
-0.022229 0.000798 0.028830
-0.020030 0.024887 0.030432
-0.001332 0.024662 -0.004724
0.045692 -0.002666 0.002477
-0.037545 -0.013550 0.029624
-0.037134 -0.026946 -0.006972
-0.031032 0.023234 -0.003538
-0.046672 -0.019926 0.001798
0.045324 0.005119 -0.020174
0.014671 -0.021239 0.029239
-0.050621 0.004155 0.000495
-0.014488 0.024046 0.001520
0.028807 -0.005596 0.028914
0.045963 -0.007460 0.010897
0.024046 -0.004018 0.028933
-0.035576 0.022978 0.000545
-0.021078 0.023659 -0.015158
0.036226 0.024361 -0.024528
-0.050075 0.013722 0.030724
0.015904 -0.024464 -0.005615
-0.017245 -0.026785 0.011402
-0.033779 -0.029824 0.030204
0.045695 -0.001591 -0.005030
0.039296 0.022013 -0.036712
-0.036433 0.023001 -0.034694
-0.036704 -0.027141 0.007275
-0.029896 0.018531 -0.047562
0.026363 -0.023838 -0.008037
-0.008678 -0.025751 -0.029040
-0.032058 0.023176 -0.013151
-0.050379 0.000667 0.002867
-0.007092 0.024347 -0.010773
0.008307 -0.024999 -0.040611
0.004361 -0.027512 0.029830
-0.022514 0.004877 0.029003
0.044864 -0.012671 -0.034836
-0.006725 -0.021797 0.029189
-0.047538 -0.024412 0.032635
-0.030488 -0.013271 0.029249
-0.018480 -0.006400 0.028701
-0.042724 -0.006268 0.029721
-0.050778 0.006596 -0.039844
0.000769 -0.025346 -0.040522
-0.040493 -0.028828 0.030332
0.029806 -0.025830 0.031415
0.045053 0.007360 -0.023967
0.027675 -0.026159 0.028545
0.044642 -0.018695 0.028865
-0.033710 0.023168 -0.014054
0.013118 0.003440 0.031249
0.017904 -0.003267 0.028650
-0.041874 -0.021839 -0.049139
-0.050849 -0.011163 0.028521
0.000905 -0.025496 0.003381
0.024360 0.026259 0.003968
0.029617 0.025852 0.029862
0.032484 -0.023885 0.019700
0.026840 -0.023701 -0.020505
-0.050442 0.000175 -0.004996
-0.034775 0.023073 -0.000002
0.045965 -0.006901 -0.028474
0.042647 0.017330 -0.013270
-0.023056 0.023630 -0.032221
0.036834 0.023760 0.013949
0.044682 -0.013168 -0.024236
0.031174 0.025694 0.029930
0.023301 0.026978 0.030522
0.003105 -0.025035 -0.011364
-0.031146 -0.027573 -0.004894
0.003284 0.005320 0.028466
0.036168 0.024721 0.027274
0.017634 0.004485 0.028386
0.035912 0.019136 0.029714
-0.002051 0.024731 0.011243
0.010190 -0.014838 0.029059
0.032520 -0.023325 -0.034200
-0.011671 0.024923 0.027258
-0.038008 -0.026664 -0.026317
0.005911 -0.024697 -0.025154
-0.016508 0.022841 0.029588
0.034042 0.015129 0.030749
-0.038844 -0.022279 -0.048522
0.039963 0.021132 -0.007896
0.001924 -0.025084 -0.014691
0.036738 -0.025067 0.029357
0.028883 -0.012696 0.029266
-0.006989 0.022074 -0.049089
-0.036882 0.022936 -0.038632
-0.018012 -0.027250 0.025416
-0.036861 0.022927 -0.034818
0.040841 0.016910 0.029808
0.034858 0.027830 0.033195
-0.045434 0.018387 0.020685
0.015084 0.002768 0.028297
0.002727 0.025120 0.020707
0.010645 -0.024579 -0.015295
0.000040 -0.019121 -0.047351
-0.026261 0.013906 -0.047202
-0.042790 0.020538 -0.025981
0.003915 0.025288 0.021920
0.013435 0.026494 0.030078
-0.037216 -0.003065 -0.047415
0.006620 0.021993 -0.048380
0.021314 0.026113 -0.004221
-0.050723 0.005094 -0.029168
0.043937 -0.014772 -0.032705
-0.048125 -0.004073 0.029954
-0.036653 0.023028 -0.044554
-0.027524 0.023489 0.016589
-0.022762 -0.026443 -0.048120
0.015372 -0.013410 0.028808
0.026790 -0.023890 -0.045610
0.014495 -0.024266 -0.027315
-0.000610 -0.022887 -0.049299
0.022188 0.026148 0.015092
0.044892 0.009430 -0.027964
0.004185 0.025020 -0.017881
0.043210 0.008100 -0.049621
-0.034790 -0.019669 -0.047378
-0.003970 -0.027306 0.031613
0.034540 -0.024444 0.029969
0.005472 0.016744 0.029011
0.026340 0.003287 0.028788
0.039900 0.006977 -0.047978
-0.017733 0.024330 0.025304
-0.045369 -0.021893 0.012452
-0.043195 -0.023749 -0.039023
0.028402 -0.023846 -0.003906
-0.025481 0.023483 -0.030649
0.012293 -0.024546 -0.036869
-0.023829 -0.027331 0.021198
-0.009662 -0.026347 0.014807
-0.050677 0.003955 -0.028322
0.001652 -0.025588 0.012683
-0.034550 -0.026966 0.029977
0.033207 0.002939 0.029097
0.003574 0.025070 0.011248
-0.016178 -0.027053 0.023544
-0.038182 0.022512 0.012394
0.032925 0.017561 0.029502
-0.047597 -0.021592 0.032722
-0.026571 -0.027404 0.015225
0.045501 0.019595 0.031350
0.021456 0.025583 -0.049392
-0.050383 0.000605 0.030092
-0.033012 0.023282 -0.031677
-0.012860 -0.025999 -0.026128
0.020273 -0.025665 0.029810
0.044744 0.011367 0.019503
-0.030443 -0.021200 0.029666
0.037599 0.013434 0.029302
-0.006326 0.024414 0.000631
-0.050578 0.002922 -0.045692
0.026227 0.014050 0.030881
0.045568 -0.001311 -0.044494
0.045572 0.001285 -0.023970
0.003661 -0.026861 0.030760
-0.045327 -0.016685 -0.049290
0.026100 -0.023778 -0.030435
-0.047975 -0.017550 0.014689
-0.047322 -0.018641 -0.024743
-0.039688 -0.025938 -0.027616
-0.014429 -0.027252 0.027114
-0.029443 -0.027345 -0.026763
0.020296 -0.026615 0.028988
-0.046119 0.022081 0.033104
0.023491 -0.024074 -0.004086
0.023187 0.020226 -0.047590
0.031534 -0.003958 0.029936
0.012993 -0.024668 -0.043975
-0.017371 -0.024542 -0.049581
0.035603 -0.023765 0.027079
-0.020561 0.022760 0.029670
0.008869 -0.017690 0.029453
-0.035102 -0.023802 0.029890
0.002105 -0.026143 0.026674
-0.031878 0.007996 0.029252
0.047204 0.005414 0.029534
-0.041070 0.021431 -0.014620
0.034897 0.022491 0.029870
-0.005057 0.024487 -0.008625
0.037677 0.023283 0.006355
-0.017237 0.000899 0.028656
-0.029897 -0.027770 0.025424
-0.007533 -0.026052 -0.042403
0.046594 0.013610 0.033378
0.013970 0.015730 0.028918
0.005104 -0.020988 -0.047815
-0.040628 -0.025439 -0.040566
0.033595 0.025369 0.020803
0.044971 0.007516 0.011587
0.041670 0.002403 -0.048942
0.043020 0.016774 0.021999
0.045952 -0.005124 -0.022164
0.037147 0.004207 0.030194
-0.023125 -0.026879 -0.032627
0.020161 0.026155 -0.048798
-0.028435 0.017185 -0.047393
0.045559 0.001713 -0.018139
-0.043890 -0.023172 0.000880
-0.025241 0.024826 0.030820
0.017425 -0.018750 -0.047449
-0.023543 -0.027157 -0.000785
0.008711 0.026620 0.032060
-0.044823 -0.022029 -0.021989
-0.022435 0.023902 0.021121
-0.016724 0.004924 -0.046634
-0.016667 0.026979 0.031506
0.020679 -0.019630 -0.047678
-0.024339 -0.016036 0.029197
0.009196 0.025439 -0.026247
0.001411 0.024998 -0.036746
0.036674 0.024131 -0.035895
-0.033019 0.023312 -0.042257
-0.048229 -0.017103 0.018611
-0.009602 -0.029292 0.031081
-0.035143 0.024767 0.029153
-0.026559 0.023439 0.000471
-0.039709 -0.025891 -0.007437
0.031131 0.006566 -0.047315
0.028186 0.026671 -0.012694
-0.050533 0.008773 -0.034342
0.046299 -0.002069 0.030476
0.038775 -0.020980 -0.006906
0.010859 -0.013030 -0.046894
0.041115 -0.019079 -0.012381
-0.032589 -0.027597 -0.008966
-0.029557 -0.027467 -0.011359
-0.033253 0.023222 0.014011
-0.024196 0.020309 -0.048502
-0.026852 0.023544 -0.022981
-0.001687 -0.024421 -0.049567
0.022549 -0.023908 -0.013208
0.044688 -0.013066 -0.037150
-0.034707 0.006781 -0.047262
-0.026003 0.023443 0.003438
-0.003720 -0.025410 -0.032903
-0.050077 -0.004015 -0.042843
0.007384 0.005048 0.028279
-0.024542 0.023496 -0.036527
0.036719 -0.015736 0.029853
-0.019690 -0.026723 -0.008083
0.016779 -0.024861 0.019095
0.033172 -0.001241 -0.047171
0.030002 -0.009607 0.028910
0.007123 0.025159 -0.016280
0.028299 -0.023781 -0.047344
-0.048365 -0.016691 0.026397
0.037858 -0.021866 0.011742
0.010100 -0.027425 0.033089
-0.009531 -0.014308 0.028843
0.037293 -0.015755 0.029967
0.032183 0.027272 0.028375
0.004981 0.020511 -0.047567
-0.015449 0.007878 0.028702
-0.027426 0.011448 -0.047073
0.012669 -0.024770 -0.048166
0.040401 0.020653 -0.029481
-0.005413 -0.026169 0.029522
-0.044690 -0.022167 -0.024620
0.034693 -0.022922 -0.003804
0.008492 0.025244 -0.009527
-0.026977 -0.003748 0.028886
-0.005543 -0.026490 0.024498
0.045116 -0.012071 -0.013332
-0.013681 -0.026233 -0.039366
0.033384 0.019490 0.029669
0.033377 -0.013348 0.030048
0.045891 -0.003597 -0.018685
0.016527 0.026410 0.027399
0.040812 -0.017178 -0.047550
-0.049377 -0.012766 -0.038728
0.002193 -0.025763 0.020989
-0.035814 0.022569 0.030204
-0.009926 -0.026575 0.022120
-0.046148 -0.020657 0.005370
-0.003730 0.019143 0.029278
-0.042292 0.017359 0.030237
-0.028742 0.023416 -0.029304
0.013503 -0.025801 0.029708
0.025898 0.026532 -0.003223
-0.043779 0.019897 -0.026101
-0.000552 -0.025694 0.009157
-0.050523 0.008474 -0.024354
-0.032754 0.000136 0.029180
-0.031088 0.020445 0.029945
-0.005346 -0.025620 -0.009998
0.014761 -0.024762 -0.043571
0.018407 -0.025115 0.026193
0.002925 -0.028558 0.032864
0.007294 0.027051 0.029950
-0.017067 0.021761 -0.049143
0.036280 -0.022569 0.011485
0.023991 0.015235 0.031241
0.018450 -0.025157 0.024218
0.043883 0.003686 -0.049150
0.017146 0.026567 0.027623
-0.031389 0.001590 -0.047070
0.037459 -0.021804 -0.003825
-0.012575 0.024217 -0.040824
0.031665 0.026075 0.004982
-0.011527 0.024391 0.029553
-0.047851 0.015549 0.016833
0.045947 -0.008117 0.012394
0.013145 -0.014329 0.028666
-0.049538 0.005325 -0.047784
-0.018951 0.024359 0.025719
-0.022504 0.024011 0.023643
0.037939 0.023195 -0.016609
0.007630 0.013650 0.028846
0.038145 -0.017480 -0.048350
0.014441 -0.028101 0.031374
0.016674 -0.018078 0.030955
-0.039767 -0.019675 0.029864
-0.000292 0.006893 0.028488
0.019068 0.026082 -0.024227
-0.020493 0.004631 0.028750
-0.006559 -0.025541 -0.025569
0.028075 0.027122 -0.039913
-0.046473 0.018150 0.027585
-0.024771 0.023501 0.004932
-0.049728 -0.009927 -0.001625
0.044523 0.012188 -0.002880
0.028963 0.005331 0.028905
-0.017083 0.013543 -0.047126
-0.019902 -0.002324 0.028571
0.013075 0.025642 -0.021838
-0.050068 -0.004578 -0.016193
-0.045340 -0.021632 -0.035212
0.001712 0.008921 0.028567
0.003192 -0.025796 0.022484
0.037097 -0.022142 0.010985
0.045841 -0.004792 0.029919
-0.045462 -0.024975 0.029325
-0.045867 0.020825 0.028974
-0.036030 -0.000300 0.029310
-0.036458 0.024084 0.030745
0.041562 -0.017596 -0.044809
0.002037 -0.001942 -0.046364
-0.039169 0.008353 -0.047526
-0.032829 -0.027543 -0.014289
-0.045656 0.018081 -0.044057
0.023030 0.026174 0.007799
-0.005812 -0.024046 0.029366
-0.044429 0.018907 0.030350
-0.017549 0.024266 0.023581
-0.048960 -0.016205 0.027211
-0.001492 -0.025188 -0.025403
0.015505 -0.012344 0.028685
0.023031 -0.011636 0.028952
0.034158 0.025493 -0.030204
-0.050862 -0.005205 0.030664
0.022178 -0.023950 -0.016449
0.045940 -0.008409 0.012698
0.042999 0.007803 0.029784
0.018358 -0.025035 0.022911
-0.021054 -0.027464 0.026842
0.033399 0.025493 -0.009755
0.025760 0.021149 0.029514
0.004710 -0.007747 0.029326
0.019074 0.008005 0.029865
0.034550 -0.026847 0.030602
-0.023188 0.023558 -0.004260
-0.050710 0.009849 0.030394
0.019968 0.011831 0.031028
0.035446 -0.018565 0.031364
0.045514 -0.010290 -0.043890
-0.039050 -0.026269 0.004171
-0.020557 -0.026614 -0.027300
-0.021624 -0.027221 0.012891
-0.028349 -0.027656 0.023615
-0.039071 0.005419 -0.047510
-0.025424 -0.023217 -0.048188
-0.020477 0.023712 -0.031434
-0.032174 0.023216 0.012674
-0.024688 0.023544 0.007462
0.035892 -0.024217 0.030075
0.045407 0.001726 -0.000750
-0.015952 0.023938 -0.012189
0.037683 -0.015014 -0.048187
0.004920 0.010850 -0.046788
-0.046102 -0.018191 -0.049393
0.029776 0.026274 0.016551
-0.008554 -0.026252 0.010191
0.033492 0.025493 0.000364
-0.034968 0.023095 -0.027900
-0.033051 -0.027596 -0.010062
0.023517 0.016984 0.029241
0.026247 0.015441 0.031238
-0.044617 -0.022457 0.002414
-0.021029 0.023299 0.029681
-0.032315 0.023088 -0.008192
0.025122 -0.020111 0.030966
-0.006930 0.004601 0.028422
0.036443 0.024189 -0.024107
-0.045506 -0.021503 0.023448
-0.024750 -0.027812 0.030000
0.045610 -0.000111 -0.046735
-0.008448 -0.016172 0.028854
-0.005253 0.024526 0.011747
-0.027929 -0.027348 -0.010325
-0.050426 0.001063 0.006004
-0.018007 -0.026724 0.000208
0.034126 -0.023071 -0.004835
-0.035945 -0.027215 -0.028465
0.039608 0.024863 0.029943
0.014426 0.025742 -0.013742
0.045845 -0.005093 0.011074
-0.009374 -0.025747 -0.025585
-0.050141 -0.002168 0.012437
0.004003 0.023629 -0.049437
0.014513 0.002825 0.028414
-0.049168 0.014862 0.030405
0.018087 -0.026254 0.030937
0.019158 0.024738 -0.049455
-0.052984 -0.000555 0.032708
0.030357 0.026180 0.015713
-0.044552 -0.005150 0.029815
-0.035896 0.022913 -0.016833
0.045284 0.004525 -0.013481
-0.040624 0.018272 -0.047977
-0.022859 -0.026933 -0.035034
-0.013440 -0.012245 0.028824
0.044986 0.008835 -0.010793
-0.033507 0.023272 -0.037581
0.010736 0.003764 0.028318
0.040255 -0.018725 -0.046508
-0.034709 -0.027597 0.019795
0.015579 -0.013872 0.028890
0.026890 0.020650 0.029524
0.005417 -0.005809 0.030607
-0.010115 -0.022545 -0.048568
0.021866 0.002224 0.028667
-0.049236 -0.013744 -0.018601
0.043030 -0.000772 0.029699
-0.020326 0.017264 0.029363
-0.024448 0.023522 -0.034072
0.014802 -0.024298 -0.035053
-0.033614 0.008075 0.029320
0.039096 0.018915 0.029832
0.045873 -0.003244 -0.016037
0.044850 0.009763 -0.024417
0.042127 0.018385 0.007071
0.008265 -0.004563 0.029166
0.046071 0.011295 0.032077
-0.036301 0.023636 0.027456
-0.025021 0.026410 0.033194
-0.044109 -0.001607 0.029748
0.044719 0.010587 -0.029836
-0.050070 -0.005002 -0.007228
0.004378 0.023150 -0.049357
0.016805 0.007246 0.028808
0.015383 -0.026807 0.029000
0.022517 -0.011809 0.028946
0.045096 0.005914 0.004365
0.021124 0.006834 0.028618
-0.037744 0.024957 0.030224
0.045635 -0.001356 -0.003068
-0.024317 0.001022 0.028707
-0.031384 -0.022130 0.029612
-0.040783 0.021560 -0.002614
0.045531 -0.000544 0.009838
0.018518 0.026136 -0.026089
0.045194 0.003676 -0.040045
-0.043323 0.020158 -0.007969
-0.030187 0.023369 -0.030271
0.022141 -0.024638 0.019386
-0.017877 -0.026445 -0.015028
0.045834 -0.008240 0.023938
0.044789 0.009478 0.006039
0.023821 -0.024599 0.018941
-0.016864 0.004799 0.028637
0.030066 0.029304 0.031129
-0.049917 -0.005007 0.006942
-0.018409 0.023800 0.004135
-0.032365 -0.027599 -0.008983
0.000018 -0.005206 0.028319
-0.050225 -0.000921 -0.035815
0.036890 0.003141 0.029636
0.044767 0.009545 -0.036302
-0.028970 -0.027536 0.009529
-0.049264 -0.018734 0.028524
0.035652 -0.003118 0.031234
0.019657 0.008586 0.029825
-0.042167 0.020922 -0.020330
-0.049589 -0.006827 0.020774
0.028888 -0.004656 0.028914
-0.017658 -0.021851 -0.047683
-0.024798 0.026005 0.033253
-0.040539 -0.025357 -0.048499
-0.009759 0.024255 -0.010134
-0.023406 -0.019075 0.029347
-0.015837 -0.014096 -0.046947
0.015379 0.023943 -0.049430
0.006187 0.025250 -0.026848
-0.030367 -0.010247 0.029150
-0.031039 -0.027493 -0.020861
-0.051242 0.008783 0.030922
-0.049722 -0.008334 0.005555
0.037150 0.017591 0.029647
0.005681 -0.025027 -0.005279
0.031280 -0.007782 0.029104
-0.025398 0.023502 0.004936
-0.024402 -0.027021 0.029644
-0.033935 -0.021276 -0.047431
0.013214 -0.006998 0.028560
0.045784 -0.003008 -0.034525
0.036238 -0.025310 0.029546
0.042381 -0.017141 -0.035921
0.014558 0.025647 -0.006352
0.000789 0.011411 0.028701
-0.008559 -0.026040 -0.000619
0.013492 -0.024354 -0.028085
0.039170 0.022767 0.027492
-0.007021 0.024375 -0.016093
-0.008234 -0.020271 0.029091
0.004967 0.025280 -0.038046
0.044719 0.003405 -0.047716
0.045773 -0.003804 0.007975
0.000169 0.024856 0.009795
0.021726 0.026462 -0.028447
-0.046222 0.016879 -0.046503
0.045324 0.002638 0.003333
0.044914 0.008353 0.002770
0.037690 0.023248 -0.004152
-0.009110 -0.010573 -0.046658
0.040922 -0.022108 0.032604
0.003115 0.024953 -0.016284
0.039659 -0.015614 -0.048307
0.014960 -0.024421 -0.037262
-0.044245 0.019473 -0.004572
-0.039924 -0.029309 0.033091
0.045726 -0.003338 0.012735
0.045009 0.011863 0.026797
-0.018726 -0.027270 0.024580
-0.026814 0.023403 -0.009540
0.037161 0.023716 -0.028149
-0.003499 0.024623 0.013273
-0.021711 -0.026694 -0.023804
-0.038862 -0.026623 0.026425
-0.016134 0.023988 -0.005007
0.042237 -0.016158 0.030822
0.013783 0.003153 0.028547
0.006372 -0.019842 -0.047437
-0.010966 0.001451 0.028494
-0.004978 0.024472 -0.028437
-0.041863 0.021001 -0.005021
0.027358 -0.023775 -0.029481
0.023163 -0.024128 0.029635
-0.012661 -0.029205 0.030379
0.014018 0.002325 0.030254
-0.037367 -0.026876 -0.007616
0.032206 -0.010504 0.029352
0.031144 0.022653 0.029783
-0.050429 0.008101 0.025175
0.013188 0.025524 -0.003731
0.043693 0.007032 -0.049568
0.017241 0.025714 0.002246
0.006364 -0.019478 0.029067
-0.027426 0.023459 -0.015660
0.019350 -0.002811 -0.046718
-0.032874 0.024330 0.028039
0.035808 -0.022937 0.020684
-0.025311 -0.027350 0.017362
0.029492 -0.026980 0.030188
-0.015934 -0.026592 0.003736
0.034038 0.021066 -0.048626
-0.014376 -0.026137 -0.027795
0.033923 0.025257 -0.011043
-0.033040 -0.005952 0.028959
-0.021093 0.023660 0.003092
0.039821 -0.019824 -0.035173
-0.008039 0.024254 -0.030869
0.032626 -0.004087 0.031131
0.048189 -0.009268 0.033171
-0.028305 0.023321 -0.008976
0.029735 0.026434 -0.005921
-0.039131 -0.026970 0.027176
-0.024827 0.023603 -0.017575
-0.008555 0.000063 -0.046356
-0.045795 0.018162 0.012323
0.045522 0.000083 -0.002650
0.033666 -0.023544 0.015891
0.043732 0.019811 0.028712
0.009116 0.026637 0.031835
-0.015035 0.014770 0.029080
0.043628 0.015300 0.011603
-0.046988 -0.019516 0.018144
0.036437 -0.020242 0.031518
0.019421 0.009040 0.029123
0.007959 -0.015982 0.030600
0.008588 0.020548 0.029245
-0.040106 0.023677 0.032485
0.034599 -0.019216 0.031460
0.010057 -0.016401 0.030751
-0.041799 0.019060 -0.047725
-0.023942 -0.000002 0.028764
0.045433 0.008562 0.030071
-0.015641 -0.026635 0.011273
-0.040487 0.021686 -0.013431
-0.009731 0.009028 0.028871
0.011056 -0.025245 0.029514
-0.018497 -0.003308 0.028643
0.027391 -0.025078 0.029738
0.038608 -0.021703 0.029691
0.023998 -0.023914 -0.013305
0.003649 -0.025341 0.003709
-0.018313 0.019658 -0.047694
-0.031819 -0.028750 0.032372
0.045161 0.005787 -0.007274
0.006379 0.025168 -0.019396
0.045164 0.004671 0.004820
-0.012713 -0.027190 0.029750
0.041333 -0.018419 -0.031300
0.000351 0.025053 0.021488
-0.018038 0.023863 -0.004057
0.003669 0.025119 -0.034201
0.036244 0.024194 -0.010869
-0.029964 -0.027462 -0.012760
-0.004078 -0.014458 0.028715
-0.006325 0.024286 -0.025223
-0.031764 -0.027648 -0.038466
-0.050614 0.007798 -0.005738
-0.009932 0.025510 0.030720
0.029674 0.026403 -0.003974
-0.029126 -0.027382 -0.022204
0.027610 -0.018421 -0.047810
0.045201 0.004278 0.009605
-0.007579 0.000738 -0.046373
0.021276 -0.014552 -0.047171
0.042823 0.021404 0.029070
-0.019399 0.010306 0.029037
0.031095 -0.023734 -0.041014
-0.036483 0.022902 -0.028929
0.007918 0.028034 0.032985
-0.005281 0.022658 -0.049297
0.029176 0.013288 0.029110
0.006297 0.002770 0.028196
0.020675 0.026253 -0.024368
-0.049372 -0.006681 0.030068
0.040388 -0.020007 0.008531
0.043895 -0.015797 0.023839
-0.034321 0.023217 -0.030923
-0.009818 0.024268 0.012103
0.033439 0.025625 -0.014829
0.007904 0.025594 -0.048213
0.045146 0.005170 -0.003712
-0.036057 0.002178 -0.047333
-0.012522 -0.029501 0.032782
0.013388 0.001533 0.028376
-0.005741 -0.025978 -0.042619
0.045020 0.008980 -0.007701
-0.050527 0.004711 0.021355
0.004513 -0.028116 0.030451
-0.005907 0.022981 -0.049395
-0.037798 0.009008 0.029855
0.019182 0.025910 0.013359
-0.028805 -0.027512 0.009213
-0.021482 -0.026697 -0.031978
0.005222 0.025330 -0.038235
0.045677 -0.003081 0.016793
-0.006043 -0.003197 0.028449
0.000303 0.022904 0.029408
0.016208 0.021626 0.029362
0.044759 0.010505 -0.027057
-0.041009 0.021408 -0.004340
0.018475 -0.024126 -0.031498
0.017632 0.006896 0.028809
0.022869 0.026168 0.007545
-0.028914 0.023210 -0.006785
0.021908 0.026192 0.023883
-0.050009 0.013335 0.030489
0.045013 0.009272 -0.014704
-0.040089 0.020017 0.030291
-0.051928 0.002481 0.033540
0.008041 -0.012033 0.028654
0.012879 0.025628 -0.023566
0.000443 -0.025460 0.000926
-0.030746 -0.008251 0.029149
0.012385 -0.022922 -0.049560
0.005389 -0.021560 0.029211
0.004451 0.007424 0.028552
0.021949 -0.024021 -0.043880
0.003365 0.024310 0.029462
0.023891 0.026221 0.009665
0.045930 -0.007044 -0.033194
-0.049965 0.010922 -0.036403
-0.016332 -0.026617 0.004597
0.031156 -0.016707 -0.047869
0.018099 0.003759 0.028498
0.010573 -0.024451 -0.027431
0.023437 0.008744 0.028805
-0.009998 0.020875 -0.048147
-0.031778 -0.028225 0.030280
-0.038746 0.022618 0.026648
0.038642 0.022494 -0.003075
0.017344 0.018392 0.029165
-0.027340 -0.027440 0.014526
-0.012744 -0.021237 0.029154
0.018360 -0.024252 -0.007695
0.019583 -0.002396 0.028661
0.034055 -0.006368 0.030433
-0.035726 0.022777 -0.046798
0.041844 0.018707 -0.033761
0.009949 -0.010046 0.028315
-0.003123 0.006623 -0.046514
-0.050637 0.005350 -0.025942
-0.026769 0.019493 -0.047896
-0.035342 0.001194 0.029317
0.019233 0.018279 -0.047442
-0.026334 -0.027189 -0.012103
0.001568 -0.019495 -0.047380
-0.013357 0.024015 0.002425
-0.050479 0.003016 0.018772
-0.013203 -0.025287 -0.049601
0.039329 -0.015138 0.030782
-0.029143 0.023297 0.004739
0.044249 0.013333 -0.000453
0.016506 0.027232 0.029007
0.008610 0.001522 0.028177
0.010424 -0.015319 -0.047074
-0.008990 -0.025797 -0.016516
0.007262 -0.007599 0.028567
-0.014907 -0.019710 -0.047439
-0.001001 -0.025104 -0.049155
0.024341 -0.023863 -0.024587
0.045097 0.008037 -0.021627
-0.025878 -0.029414 0.030198
-0.031510 -0.021195 0.029622
0.022252 0.025840 -0.049322
-0.027079 -0.023630 -0.048486
-0.050437 0.008456 -0.004550
-0.021668 -0.026515 -0.043768
-0.046107 0.021270 0.030323
-0.044054 -0.023005 -0.025941
0.042679 0.017257 -0.019453
0.008164 -0.006873 0.028418
-0.002036 0.004119 0.028372
0.012051 0.007845 0.028495
0.009620 -0.010100 0.028293
0.044244 -0.014291 -0.022108
-0.009374 0.024214 -0.027845
0.021578 0.024613 -0.049377
-0.018092 0.026976 0.032001
-0.028621 -0.027744 0.025729
-0.011867 0.008114 0.028903
-0.007118 0.017718 0.029196
-0.011307 0.011995 0.028900
0.013389 0.025518 0.011182
0.045024 0.008635 -0.022798
0.014851 0.025964 0.023211
-0.041028 0.006380 -0.047632
0.009182 -0.000045 0.029131
-0.046046 -0.020692 -0.007208
-0.019358 -0.017591 0.029073
0.018520 0.013186 0.028731
-0.039390 0.022115 -0.007727
-0.046489 -0.020307 0.021986
0.024920 0.026344 0.010156
0.040896 -0.002272 -0.047851
0.029658 -0.023801 -0.040026
-0.044142 0.021853 0.032725
-0.024885 0.023515 -0.010019
0.024183 -0.024825 0.023795
0.032037 0.025942 0.003718
0.044945 0.009366 -0.021518
0.024510 -0.023989 -0.040026
-0.050024 -0.004405 0.003434
-0.032419 -0.027538 -0.035636
0.014019 0.022518 0.029400
0.020297 0.012458 0.030293
-0.031954 -0.027743 0.004700
0.044116 -0.007906 0.029791
-0.029084 0.023457 -0.041074
-0.015513 0.027085 0.031487
0.026352 0.026532 0.024974
-0.050772 -0.011383 0.032834
-0.039466 -0.021504 0.029941
-0.050961 -0.010436 0.028592
0.042109 0.018438 0.018531
-0.028854 -0.027375 -0.008590
-0.002535 0.024710 0.015303
0.013821 0.004539 0.031224
-0.021304 0.023882 0.020902
-0.031334 0.023349 -0.040901
0.011800 0.025531 -0.018829
-0.046864 -0.013629 -0.049494
-0.033972 0.023169 0.007107
0.044865 0.008175 -0.036532
-0.021807 0.023953 -0.042336
-0.012527 0.021674 -0.049027
0.015312 0.000873 0.028389
-0.018858 -0.026788 -0.000960
-0.007237 0.024742 0.029601
-0.003650 0.024996 -0.047466
0.037555 -0.022042 0.017892
0.011520 0.025489 -0.014622
0.020588 -0.024424 0.006626
0.013373 -0.025028 0.015501
0.045922 -0.004412 -0.015589
0.038920 0.022363 -0.027599
-0.050002 -0.004004 -0.037021
-0.019248 0.024061 0.029707
0.023657 -0.023938 -0.032634
-0.049966 -0.004499 -0.043299
-0.042955 0.020318 -0.034257
0.043293 -0.016260 0.004422
0.017413 -0.022190 -0.049403
0.028795 -0.021307 0.029848
0.043837 0.020348 0.033250
-0.005702 -0.026374 0.022466
0.021973 -0.012609 -0.047078
-0.018864 0.011599 0.029049
-0.036650 -0.017074 0.029778
0.042784 -0.011656 0.031123
0.006511 -0.010658 0.030821
-0.019903 -0.026612 -0.033421
0.037627 0.023460 -0.031061
0.018328 0.010103 0.028954
0.028186 0.026711 -0.016808
0.040615 0.020394 -0.004825
-0.048068 -0.017232 -0.002577
0.030459 -0.012403 -0.047426
-0.008844 -0.025731 -0.023100
0.011074 0.025466 -0.016024
0.041281 -0.018528 -0.028793
0.021432 -0.023938 -0.020151
0.037709 0.014069 0.029386
-0.047014 -0.019378 0.026254
-0.011522 0.008347 0.028900
0.011298 -0.007923 0.028457
-0.019094 -0.002981 0.028624
-0.014297 -0.026270 -0.048142
-0.021959 -0.005589 0.028629
-0.024026 -0.006364 0.028871
0.028481 -0.007287 -0.047077
0.004224 0.025077 -0.019668
0.010665 -0.025205 0.020775
-0.004497 0.013655 0.028860
0.000340 0.022530 0.029392
0.000753 0.024807 -0.026210
-0.050255 -0.001274 0.025895
-0.045764 0.018026 -0.037172
-0.009891 -0.026737 0.024258
-0.018682 -0.018891 -0.047380
-0.022358 -0.028234 0.031716
0.001527 -0.027729 0.032993
0.036149 -0.013253 0.030144
-0.002336 -0.025827 0.010063
-0.044728 0.002326 0.029962
-0.049988 -0.006532 -0.006633
0.002853 0.014327 0.028864
-0.011521 -0.025938 -0.022180
0.014864 0.013403 0.028691
0.041936 0.018545 0.025509
0.046003 -0.016591 0.029536
-0.049729 0.002168 -0.048450
0.031273 -0.023333 -0.046995
0.037395 -0.022140 0.013471
0.017693 0.007392 0.028682
0.041157 -0.018202 -0.043594
0.034815 0.024660 0.029976
-0.034078 0.023244 -0.032078
-0.020270 -0.026643 -0.015748
0.028959 0.001631 0.028893
0.021800 0.025949 0.010714
-0.026970 0.026406 0.033293
-0.011133 -0.025920 -0.028502
-0.049585 -0.005651 0.030015
-0.002234 -0.018664 0.028978
-0.046083 -0.011731 -0.048884
-0.020224 0.023742 -0.006841
-0.046113 -0.001573 0.029758
0.035752 -0.015765 0.029882
0.040939 -0.007476 0.031533
0.041133 0.019710 0.003380
0.012066 -0.020639 -0.047788
0.021633 0.014047 0.029233
0.016925 -0.024438 -0.004281
-0.005468 -0.019615 -0.047412
-0.008162 0.001082 -0.046393
0.023832 0.029079 0.031842
0.028388 -0.021344 -0.048340
-0.034002 0.023149 0.016085
0.045223 0.003729 0.010421
0.031703 0.026476 -0.044806
0.023021 0.026445 -0.024090
0.046780 0.011274 0.029455
-0.016405 0.024326 0.023962
-0.046973 0.020117 0.029833
-0.003948 -0.025557 -0.038643
-0.050772 0.012209 0.031521
0.013713 0.026543 0.030143
-0.033914 -0.027551 -0.038723
-0.021471 -0.020874 0.029299
0.045049 0.006284 0.013012
0.026710 0.028165 0.030045
-0.049887 -0.016319 0.030711
0.025193 -0.023793 -0.015777
0.015384 0.026184 -0.038790
-0.015830 -0.029077 0.030274
0.004041 -0.025297 0.003117
-0.005477 -0.025575 -0.013598
-0.014772 0.023964 -0.035328
-0.004729 0.024490 -0.005592
0.045947 -0.004942 -0.027535
-0.050466 0.003290 0.010996
0.042200 -0.017955 -0.003479
-0.028683 0.023305 -0.009454
-0.050754 0.007040 -0.012058
-0.033267 -0.017837 -0.047315
-0.046382 0.003544 -0.047985
-0.044895 -0.022191 0.005133
0.039071 0.022237 -0.033644
-0.050477 0.001835 -0.026242
-0.009712 -0.026228 -0.042503
0.031205 -0.023754 0.000315
0.035246 -0.025354 0.028620
-0.014902 0.015576 -0.047218
-0.035138 0.015670 0.029816
-0.014772 0.023935 -0.023422
-0.029515 -0.027467 -0.039927
-0.040741 -0.015546 0.029805
-0.029390 0.014084 -0.047186
-0.043694 0.019910 -0.000227
-0.020653 0.001419 0.028796
0.039099 0.022212 -0.023337
0.000728 0.013570 0.028824
-0.038000 -0.025588 -0.049277
0.032194 -0.023618 0.001454
0.044255 -0.014429 -0.017909
0.040617 0.011643 -0.048857
-0.049757 -0.009139 -0.005151
0.045678 -0.000877 -0.013525
0.014517 -0.023970 -0.049283
0.007265 0.025154 -0.013319
0.022099 0.014758 0.029353
-0.007117 -0.011267 0.028714
0.035709 0.026894 0.029569
-0.020056 0.023839 0.008574
-0.005961 -0.025660 -0.009125
-0.001701 0.005233 -0.046464
-0.004750 0.017554 0.029230
0.045238 0.003685 -0.001345
-0.045824 -0.020977 -0.041703
-0.033681 -0.027739 0.023358
0.038470 0.011058 0.030186
-0.042802 -0.024061 -0.005470
-0.049957 0.010961 0.015000
-0.049596 0.011573 0.021802
-0.047823 0.000021 0.029898
-0.033400 -0.007457 0.029063
0.044827 0.010590 -0.005436
0.009897 0.025299 -0.004799
0.044563 0.012707 0.026370
0.021234 0.013082 0.029207
-0.025186 0.023423 0.029848
-0.039163 -0.023419 -0.049089
0.002289 -0.008996 0.028477
0.039162 0.021982 0.004935
0.026882 0.026678 -0.016736
0.013610 0.026058 -0.039243
-0.007564 0.008852 0.028626
-0.049243 0.012702 -0.036973
-0.024238 0.026558 0.032979
0.006095 0.025096 -0.005378
-0.023851 -0.026929 -0.031017
0.047205 -0.002504 0.028588
0.003929 -0.025169 -0.003758
-0.035678 -0.017045 0.029709
0.040734 -0.019688 0.029711
0.013340 -0.025863 0.027039
0.019145 0.027557 0.033136
-0.042533 -0.028243 0.033021
0.045288 0.008269 0.026373
0.019663 -0.020518 -0.048192
-0.042744 -0.015112 0.029782
0.022940 0.009818 0.028852
0.040146 0.001794 0.031054
0.012373 -0.024615 -0.007730
0.043186 0.009188 -0.049609
-0.014415 0.024025 -0.007982
0.009347 -0.009683 0.028400
-0.016920 -0.027993 0.030965
0.042778 0.017136 -0.010750
-0.019796 0.023770 -0.013649
-0.024406 0.023307 -0.048288
0.026237 0.026657 -0.017580
0.012138 0.025455 0.000713
-0.013223 -0.026756 0.021645
0.012730 -0.002823 0.028483
0.002225 0.024940 -0.019930
-0.042618 0.023276 0.033266
0.034164 0.007129 -0.047506
-0.026014 0.023461 0.004531
0.004295 0.012527 0.028755
0.024881 -0.026620 0.029691
-0.006502 -0.003730 0.028433
0.025360 -0.027596 0.030512
-0.038600 -0.026427 -0.004368
-0.011769 -0.026106 -0.009038
-0.047619 0.014447 -0.047118
0.045628 0.012506 0.030601
0.030963 -0.027625 0.031031
0.038551 -0.021045 -0.016814
-0.031528 0.023003 0.030099
-0.033383 0.023407 -0.045278
0.036885 0.023924 -0.025951
-0.021250 -0.004260 -0.046659
-0.043095 0.020342 -0.022095
-0.051066 -0.004713 0.032716
-0.045584 0.018484 0.027047
0.015372 0.007168 0.028704
0.037229 -0.020905 0.030312
-0.003934 -0.025886 0.012761
-0.050591 0.007138 0.008058
-0.022596 -0.024838 -0.049490
-0.043258 -0.023794 0.021283
-0.045275 0.018625 0.003661
0.026936 0.026978 -0.033452
-0.037071 -0.004976 0.029380
0.025720 -0.023795 -0.026683
-0.013675 0.024053 -0.011255
-0.048028 0.014159 -0.046709
0.045054 0.007656 -0.027356
0.008044 0.025306 -0.020487
-0.027930 -0.000182 0.028920
0.006804 0.025209 0.017849
0.046029 -0.007556 0.001987
0.019071 -0.024203 -0.007588
-0.011057 -0.019404 -0.047400
0.030321 0.017790 0.029474
-0.017501 0.011527 0.029026
-0.001185 0.024701 -0.014877
-0.002860 -0.022382 -0.048817
0.012403 -0.026993 0.032904
0.032004 -0.023802 0.014207
0.008589 -0.021157 0.029192
0.045415 -0.011137 -0.004495
0.010159 -0.024625 -0.015185
-0.028891 0.003132 -0.046956
0.044945 0.007030 -0.047094
0.018248 -0.024690 0.015792
0.013966 0.004942 0.031103
0.009920 -0.016652 0.030854
0.041282 0.019575 -0.025226
-0.041666 -0.019164 -0.048082
0.035723 0.025783 0.028078
-0.035677 0.002952 0.029390
-0.050885 -0.008076 0.031606
0.004848 -0.002146 0.028329
0.045910 -0.005165 -0.043123
-0.034808 -0.002748 0.029248
0.042259 -0.017597 -0.020225
0.006147 -0.010828 0.030830
0.030928 0.026648 0.030185
-0.014452 0.004934 -0.046571
0.042801 -0.016844 -0.020395
0.045321 0.004777 -0.018110
-0.035352 -0.029412 0.029567
0.039062 0.020430 -0.049561
-0.046030 -0.021213 0.030154
-0.033316 -0.028660 0.031360
0.041768 -0.018609 0.024857
0.016890 -0.024180 -0.022349
0.041323 0.014483 0.029737
-0.047485 0.015889 0.023113
0.031519 0.029050 0.031443
0.021645 0.014676 0.029188
0.023421 0.026454 -0.011641
0.002007 -0.024935 -0.029590
-0.043990 0.009171 0.029924
0.034637 -0.023029 0.002230
0.045703 -0.002584 -0.037844
0.019718 -0.024107 -0.039607
-0.039523 -0.017253 0.029716
-0.036528 -0.027164 0.003927
0.029020 0.027060 -0.041594
-0.051697 0.008850 0.033339
-0.011007 -0.026430 0.015013
-0.025032 0.005678 0.029049
0.025989 -0.011263 0.031029
0.042681 -0.019682 0.030560
0.039760 0.021435 -0.018447
0.004495 -0.006691 0.028337
-0.020149 0.023716 -0.026697
-0.051203 -0.002907 0.033011
-0.010018 0.024602 0.023795
-0.048898 0.013495 -0.030488
-0.003263 -0.028737 0.030609
-0.000063 -0.025719 0.014835
-0.022260 -0.017801 0.029283
0.027689 -0.025927 0.031057
0.045927 -0.006045 -0.041641
0.004773 -0.018135 0.028975
-0.048159 -0.004078 -0.049336
0.039561 -0.020491 0.029816
-0.015318 -0.010111 0.028715
0.012595 0.025744 -0.027646
-0.030873 -0.003893 0.028864
0.029060 0.011023 0.028813
-0.011523 -0.025911 -0.024305
0.020024 0.011764 0.031222
-0.047193 0.005516 0.030004
0.006721 0.025109 -0.002537
-0.050218 0.015650 0.029606
0.003985 0.024986 -0.015252
0.033922 -0.018261 0.030808
0.030441 -0.006472 0.031020
0.006228 -0.016570 0.028837
-0.019752 0.002330 0.028647
0.012379 -0.002788 0.028439
0.011383 0.002507 0.029460
-0.010233 -0.022967 -0.049048
-0.021299 0.022748 0.029702
0.025543 -0.024268 0.011701
-0.032091 0.023239 0.013959
0.012635 -0.013681 0.028568
-0.019042 -0.027037 0.020149
-0.020836 -0.026944 0.001656
0.045190 0.004644 0.002952
0.011437 0.025455 -0.017840
-0.029760 -0.000800 0.029073
0.046135 -0.009479 0.026709
0.027152 -0.010384 -0.047150
-0.002809 -0.025335 -0.018328
-0.022026 -0.026713 -0.025838
-0.024046 0.025007 0.031925
0.044936 0.001606 -0.047019
-0.050886 -0.002380 0.030626
-0.002894 -0.025742 0.003500
0.011043 0.025163 0.029513
0.045857 -0.008555 -0.019936
0.044373 0.012562 -0.041264
-0.018678 -0.004740 0.028661
0.021495 -0.015513 0.030607
-0.004869 -0.025800 -0.001537
0.006189 0.025281 -0.048534
0.008670 0.025634 -0.046398
-0.012299 -0.026127 -0.038726
0.026503 0.026579 -0.001653
-0.042926 -0.023934 -0.011195
-0.032074 -0.027565 -0.017267
0.044148 -0.015022 0.029842
-0.035764 -0.011087 0.029486
-0.042019 0.018726 -0.047812
0.006137 -0.024543 -0.048937
-0.052145 0.004046 0.030362
-0.025975 -0.001892 -0.046822
0.013188 0.009935 -0.046845
0.030486 -0.023645 -0.020538
-0.028873 0.013467 0.029398
-0.049159 -0.000815 0.030051
-0.050976 -0.019026 0.032716
0.011907 -0.025435 0.026123
0.027913 0.026616 0.021964
0.024884 -0.023782 0.029673
-0.006941 0.021073 -0.048173
-0.014004 0.017551 0.029234
0.007739 0.026957 0.032988
-0.001559 -0.025385 -0.048811
-0.022997 0.023608 -0.000839
-0.007600 0.024372 0.006648
-0.039865 -0.024753 0.030100
-0.015993 -0.026675 0.009779
0.021495 -0.019493 -0.047669
0.037105 -0.022089 0.003459
0.030891 -0.023734 -0.002544
0.006422 -0.025782 0.029554
0.029204 0.026394 0.003634
0.044305 0.012997 -0.033114
0.035103 0.010545 0.029241
-0.038245 -0.005710 0.029452
-0.048966 -0.003654 -0.048865
0.024767 -0.019645 0.031216
-0.016028 0.027048 0.032013
-0.001862 -0.026283 0.024393
0.047422 0.000488 0.029964
-0.028799 0.023450 -0.039717
0.004034 -0.010219 0.028482
-0.016912 0.024226 -0.046968
-0.001717 0.023718 0.029446
-0.032086 0.023350 -0.035424
-0.040816 -0.022003 0.030041
0.036425 -0.022092 -0.018627
0.018622 -0.025093 0.026112
0.003557 0.022066 -0.048700
-0.028853 0.026592 0.031460
-0.043083 0.020232 0.015909
-0.010499 0.024212 -0.000605
0.022412 -0.023926 -0.047827
0.032300 -0.023377 -0.038519
0.009761 -0.020815 -0.047834
-0.019666 -0.008767 0.028688
-0.025577 0.023497 0.008602
0.014638 0.013875 -0.047122
0.029499 -0.023699 -0.016886
0.011707 -0.008021 0.028476
-0.051238 -0.013967 0.030045
0.033791 -0.018817 0.031288
-0.028454 0.023340 -0.011123
0.016388 -0.027502 0.033142
-0.034426 -0.027435 -0.022251
0.045116 -0.012070 -0.023073
-0.040642 -0.012973 0.029711
0.036729 0.016351 -0.047880
0.012163 -0.028253 0.031889
0.017947 0.026332 -0.038167
-0.036349 -0.013297 0.029533
-0.011420 0.024097 -0.021349
-0.032061 -0.027738 0.003790
-0.044369 -0.010221 -0.047945
0.041844 -0.010850 0.031667
0.018906 -0.016597 0.029295
0.011930 -0.008436 0.028451
0.008510 -0.014972 -0.047009
0.022407 0.013218 0.031376
-0.002455 0.024637 -0.017998
0.012742 -0.024700 -0.001260
-0.028175 -0.027464 0.006414
0.042234 -0.023175 0.030767
-0.012343 0.024320 -0.041632
0.019250 -0.005309 0.028718
-0.027107 0.023376 0.009790
0.041850 -0.018627 0.015007
0.041604 0.014634 0.029769
0.046961 0.010444 0.029892
0.014391 -0.027598 0.033218
-0.005984 -0.000577 -0.046358
0.031945 -0.019600 0.031461
0.044664 -0.017581 0.032518
-0.016103 0.015963 -0.047255
-0.025182 0.023494 -0.036601
0.027186 -0.010115 0.031098
-0.050267 -0.000770 -0.042559
-0.042566 -0.017861 -0.048100
-0.019019 -0.018729 0.029058
0.044019 -0.014557 -0.034961
-0.030897 -0.001416 0.029086
0.026052 -0.023896 -0.006478
-0.025306 -0.014311 -0.047061
0.011556 -0.016582 0.029944
-0.029679 0.023442 0.020008
-0.008912 -0.025525 -0.048520
-0.031028 0.023327 0.010782
-0.018908 0.023848 -0.039308
0.013129 -0.017003 0.029731
-0.006993 0.026736 0.030549
0.014748 0.000573 0.028367
0.044483 0.016849 0.030654
-0.025376 0.023081 0.029836
-0.005616 0.014287 0.029058
0.010330 0.024092 -0.049488
-0.037812 -0.026732 -0.004720
0.019486 0.009756 0.028991
0.009603 -0.025271 0.020779
-0.018739 -0.021466 -0.047646
-0.023081 -0.023654 -0.048892
0.034631 -0.024305 0.029920
0.039846 0.022236 0.030033
-0.034701 -0.006841 0.029060
0.021742 0.026380 0.025382
0.013213 0.001472 0.029285
0.022001 -0.012685 0.028975
-0.010039 -0.015187 0.028803
0.010572 0.026495 0.030591
-0.046643 -0.021926 0.030425
-0.050696 0.004178 -0.028148
-0.040850 -0.025332 -0.045335
0.020164 0.028394 0.033264
0.002930 0.010338 0.028625
0.041607 0.019181 0.012199
0.013105 -0.024568 -0.007026
-0.004594 0.009090 0.028607
-0.018843 -0.026429 -0.025919
-0.049920 0.010757 -0.031846
-0.003817 -0.025404 -0.011889
0.010217 0.009203 0.028442
-0.006999 -0.026354 0.021254
-0.039952 -0.018515 -0.047459
0.028578 0.017215 0.029439
-0.032722 0.004501 0.029309
0.021415 0.026458 -0.030630
-0.031732 -0.025567 -0.049466
-0.043460 0.010492 0.029992
-0.020597 0.023708 -0.029102
0.019219 -0.002752 0.028672
0.037518 -0.018936 -0.048132
0.014687 0.003339 0.030669
-0.035970 -0.017132 0.029730
0.000200 0.014870 0.028905
-0.010833 -0.022974 -0.049013
0.017758 0.025936 -0.047669
0.026279 0.026755 -0.027869
-0.049468 0.017466 0.030286
0.033405 -0.023134 -0.043119
-0.044387 -0.022605 -0.032173
-0.011662 -0.019072 -0.047371
-0.041922 0.010942 0.029947
0.040654 -0.019540 -0.009189
0.043958 -0.015287 0.012045
-0.036116 0.023023 0.002436
-0.014025 0.024110 -0.003448
-0.001751 0.009620 0.028608
-0.035121 -0.026076 0.029973
0.020433 0.025976 0.014862
-0.019441 -0.026983 0.013334
-0.037758 0.014932 -0.047608
-0.024437 -0.024250 0.029473
-0.030463 0.023428 -0.036320
-0.007405 0.024608 -0.043240
0.025271 0.026624 -0.015266
0.029034 0.026674 -0.017662
-0.028555 -0.006933 0.029042
-0.051154 0.001705 0.030728
-0.042735 0.008675 0.029856
0.036382 0.023025 0.029941
-0.007899 0.002835 0.028339
-0.049674 -0.009099 -0.028747
0.016341 -0.021463 -0.048970
-0.047186 0.016403 0.010623
-0.050316 -0.001096 -0.002235
-0.021237 0.002566 -0.046689
-0.052430 -0.004469 0.033557
-0.020492 -0.024207 -0.049426
0.006926 0.025155 -0.016035
0.000192 -0.024256 -0.049584
0.006112 -0.024755 -0.029604
-0.005689 0.024576 0.009405
0.007749 0.025173 -0.004984
-0.039833 0.021975 0.011179
-0.016575 0.023831 -0.031499
-0.029437 -0.009722 0.029093
0.000071 -0.025683 0.014393
0.042097 0.020152 0.027717
0.046033 -0.011732 0.030104
0.045891 -0.004641 -0.003503
-0.039050 -0.017307 0.029701
0.027933 0.028070 0.033116
-0.009090 0.024220 -0.027529
-0.009837 -0.027588 0.031185
0.032257 -0.023488 -0.007395
0.017263 -0.017743 -0.047367
-0.050394 0.001093 -0.045979
-0.050443 0.008983 -0.020986
-0.043771 -0.023420 0.015686
-0.001349 -0.026081 0.022527
0.041360 -0.017332 -0.046794
-0.026939 0.023533 -0.018186
-0.042971 0.020378 -0.001042
-0.048284 -0.016578 -0.039861
0.019220 -0.024839 0.020359
-0.026813 0.023482 -0.016522
0.026164 -0.023764 -0.013010
-0.012786 0.015405 0.029090
-0.005340 -0.004986 0.028465
0.040828 0.019987 -0.029843
-0.031867 0.017307 0.029773
-0.024132 -0.010441 0.028952
-0.002036 0.024714 -0.033751
-0.018059 -0.019382 0.029065
0.044237 -0.018063 0.032112
0.025085 0.025267 0.029681
0.042057 0.023066 0.030107
-0.023818 0.025661 0.030332
0.003623 -0.017056 -0.047147
-0.047709 0.015649 0.005207
0.035828 -0.022336 -0.021599
-0.020034 -0.026604 -0.018618
-0.049978 -0.003509 -0.040418
0.038894 0.022254 -0.001458
0.017263 -0.001899 -0.046656
0.044991 0.006745 -0.037885
0.002759 -0.022015 0.029242
0.008679 0.025212 -0.001190
-0.006397 0.024436 0.016173
-0.029980 0.023368 0.016621
-0.013371 -0.010773 0.028721
-0.051054 0.016471 0.031143
0.038742 -0.004742 -0.047449
0.007717 -0.025306 0.018761
-0.016618 0.023829 -0.029651
0.034659 0.011494 0.029175
0.007002 -0.025116 0.003278
0.045376 0.008616 0.026698
-0.020880 0.023992 0.023083
-0.007510 0.024331 -0.029251
-0.039524 -0.025578 -0.048874
-0.007103 0.024384 0.007880
0.019464 -0.018921 0.031091
0.009494 0.025536 0.021587
-0.022758 -0.026735 -0.028336
0.023304 -0.023541 0.029628
0.038161 0.022942 -0.014321
0.000631 0.024800 -0.014409
-0.050616 -0.006124 0.030560
0.044041 0.013468 -0.045316
-0.024570 0.023546 -0.030020
-0.033128 -0.026844 -0.049158
0.031848 -0.023454 -0.028320
0.029783 0.026319 0.008220
-0.006475 -0.026174 0.017656
-0.001272 -0.028331 0.033168
0.045135 -0.012023 -0.009181
0.008138 0.025197 0.001857
0.043237 -0.015832 -0.037394
-0.001740 -0.026207 0.023414
0.039875 -0.019865 -0.032746
0.044427 -0.017632 0.027901
-0.050666 0.007221 -0.016854
0.044097 -0.003787 0.029765
-0.005190 -0.025534 -0.031972
0.040574 -0.010026 0.031331
0.015746 -0.024252 -0.015477
0.037819 -0.021712 0.007198
-0.010921 -0.024931 -0.049546
-0.035534 0.022998 -0.022320
-0.006442 0.024321 -0.022907
0.008125 -0.023938 0.029418
0.001338 0.027222 0.030560
0.001071 -0.026107 0.025336
-0.001545 0.024762 -0.035646
-0.050319 -0.016399 0.033087
-0.046025 0.013065 -0.048032
-0.044403 -0.024647 0.031297
0.033814 0.027418 0.029289
-0.035975 -0.007964 0.029103
-0.010077 0.025481 0.028096
0.037349 -0.021834 -0.007473
-0.008606 0.024631 -0.043068
0.017921 -0.024151 -0.032263
0.028363 -0.012742 0.030259
-0.030531 -0.019410 -0.047381
-0.013865 -0.028514 0.029860
-0.005793 -0.025526 -0.019982
0.017412 -0.027892 0.032874
-0.032468 0.024705 0.031867
-0.049995 -0.004614 0.006785
-0.049420 -0.011110 0.013985
0.042393 -0.004519 0.029696
-0.050449 0.008050 0.021703
-0.030913 -0.027431 -0.010125
-0.010484 0.023989 -0.043977
0.044878 0.010434 -0.012618
0.040105 -0.023102 0.028594
-0.047886 -0.012397 0.029930
-0.050646 0.006561 -0.003058
0.010955 0.021632 0.029331
-0.041585 0.021143 0.024868
0.029004 -0.001177 -0.047035
-0.049594 -0.010785 0.002831
0.028847 0.005824 0.028914
-0.019838 0.014033 0.029157
-0.050575 0.003231 -0.036121
0.006218 0.025245 -0.027277
0.021404 0.022462 -0.047969
0.035596 0.014588 0.029889
-0.039296 0.022182 -0.027423
0.017308 -0.024205 -0.034705
-0.045943 -0.020898 0.005598
0.010081 -0.001070 0.028439
0.029180 -0.026732 0.030105
0.027478 -0.002394 0.028955
-0.049518 0.012179 -0.031186
-0.049896 0.014271 0.030793
0.040522 0.020422 -0.014935
0.010988 -0.000099 0.028938
-0.006579 -0.016528 -0.047126
-0.035585 -0.024485 0.029936
-0.007554 -0.027463 0.031354
0.045729 -0.002028 -0.010160
0.038517 0.022813 -0.039995
0.025283 0.028725 0.033326
-0.015144 -0.011033 0.028768
0.016367 0.026565 0.027700
0.008129 0.011881 0.028772
0.026157 -0.024020 0.000046
0.040352 0.020663 -0.007860
0.012791 -0.024348 -0.026040
0.009424 0.020568 0.029241
-0.049303 -0.017556 0.030501
-0.021424 -0.026801 -0.035837
-0.048782 -0.016778 0.030197
-0.000220 -0.025355 -0.047521
0.008711 0.025296 -0.016460
-0.013344 -0.025815 -0.044283
-0.032187 -0.027799 0.014314
-0.018806 -0.007802 -0.046656
0.023515 -0.023890 -0.015407
0.011463 0.025468 -0.014032
-0.037124 0.022921 -0.040330
-0.036477 -0.027089 -0.045260
0.044715 0.010133 0.014687
-0.045650 -0.021025 -0.032116
-0.049381 -0.015984 0.030239
0.002139 -0.025910 0.022785
-0.021974 -0.022764 -0.048034
-0.030253 0.023412 -0.025391
0.009377 0.025643 -0.037759
-0.035440 -0.006461 -0.047283
0.002153 0.024841 -0.009735
0.030009 0.023140 -0.048734
-0.020575 -0.026381 -0.048682
-0.016312 -0.027649 0.030077
0.023693 -0.023863 -0.022372
0.015207 -0.024674 0.003915
-0.001431 0.025223 -0.042719
0.008017 -0.001151 0.029537
-0.020343 0.022775 -0.049411
0.037748 -0.014092 0.029856
-0.028795 0.023694 0.024887
-0.042895 -0.015811 0.029830
0.000612 -0.022099 -0.048754
-0.050673 -0.008010 0.030727
0.027832 -0.019980 0.031211
0.038634 0.022649 -0.018456
0.012230 0.026831 0.032265
-0.041578 -0.026173 0.027636
0.013164 0.025370 0.002297
0.036925 0.023728 -0.005141
-0.052146 -0.014843 0.031089
-0.035446 0.023241 0.030190
0.036318 0.024085 0.001721
-0.044004 -0.026005 0.028809
-0.038277 -0.016743 0.029722
-0.027103 0.023568 -0.020848
-0.016275 -0.024156 -0.049533
-0.016533 -0.026749 0.011246
0.036610 0.001290 0.031057
0.026444 0.013904 0.030683
0.035098 0.025089 -0.041296
0.008317 -0.001189 0.031057
-0.012591 -0.006176 0.028511
-0.030235 -0.004447 -0.047010
0.044890 0.008730 0.007662
-0.031171 -0.027675 -0.045246
0.008580 -0.003900 0.028698
-0.007221 0.012854 -0.046914
-0.009835 0.024240 -0.001615
-0.007071 0.006283 0.028490
0.007226 -0.014108 0.030837
-0.024008 -0.017806 0.029295
-0.050402 0.008559 0.017536
0.042847 -0.016540 -0.023682
-0.033130 -0.027643 -0.001244
-0.049804 -0.007751 0.001411
-0.017341 -0.026478 -0.011660
-0.033706 -0.027560 -0.021397
0.005731 -0.024674 -0.048795
0.038357 0.022794 -0.014449
-0.049749 -0.004556 0.029995
-0.033935 -0.029752 0.030169
-0.002503 0.020147 -0.047524
0.043003 -0.015132 0.029830
-0.046083 0.017576 -0.019199
-0.027777 0.023108 0.029910
0.033080 -0.010496 0.029580
-0.039565 -0.020756 -0.047857
-0.026224 -0.027354 0.004246
-0.044169 -0.021149 0.030111
-0.050441 0.001357 -0.001821
0.029234 -0.024551 0.029769
-0.002494 -0.028824 0.030837
-0.021563 -0.010957 0.028751
0.021768 -0.024149 -0.004197
0.029599 0.017678 0.029444
0.034763 0.022565 -0.049519
-0.030974 -0.027522 -0.025189
-0.017991 -0.027443 0.029713
0.045612 -0.001505 0.010354
0.037326 -0.021412 -0.040139
-0.020707 0.024002 0.023262
-0.049827 -0.008025 -0.019762
-0.050371 -0.001534 0.026587
-0.004161 -0.025931 0.009037
-0.005127 -0.025702 -0.005554
-0.039590 0.025400 0.033128
-0.031051 0.023343 0.010207
0.015139 -0.024307 -0.028113
-0.010497 0.024299 0.018214
0.021490 -0.024153 -0.005239
0.008775 -0.027694 0.030289
0.038752 -0.014824 0.030285
-0.036618 0.022864 -0.028369
0.028840 -0.017009 0.031216
0.035900 -0.016881 0.030410
0.045375 -0.011323 -0.019049
-0.045256 0.018518 0.007100
-0.001710 0.024661 -0.021927
-0.005611 -0.025591 -0.033639
-0.032184 -0.025370 0.029797
-0.035801 0.023020 -0.032250
0.023987 0.011579 0.028915
0.044453 0.012554 -0.006280
-0.048503 -0.015986 -0.040391
0.034257 -0.021511 -0.047941
