-0.015508 0.024381 0.009008
0.008099 0.018053 0.008537
-0.000877 -0.014709 0.008442
-0.006804 -0.005513 0.008344
0.006170 0.041329 -0.009510
0.029494 0.007719 0.009060
-0.015465 0.005075 -0.017404
-0.041933 -0.007986 0.011479
0.033278 -0.011095 -0.019363
-0.005029 -0.028214 0.008884
0.033739 -0.000795 0.009437
-0.008234 0.006271 0.008381
-0.023908 -0.034779 -0.008624
-0.013244 -0.034123 0.008874
-0.035343 0.021972 -0.017432
0.040715 0.008485 -0.017445
-0.015629 -0.022912 0.008633
0.021215 0.035448 0.011109
-0.003180 -0.006504 0.008335
0.007556 -0.041497 0.006017
-0.023112 -0.027654 0.008921
0.016761 0.015567 0.008641
-0.013681 -0.021374 -0.017933
0.030024 0.011004 -0.018342
-0.021797 -0.016307 0.008547
-0.001710 0.014578 0.008451
-0.038121 -0.000225 0.010013
-0.021487 -0.000329 -0.017374
-0.004493 0.011485 -0.016807
0.008846 0.028624 0.009130
-0.027331 -0.002028 0.008596
0.027366 0.028259 -0.020780
0.025982 0.018978 -0.018058
-0.025911 0.009285 0.008629
-0.021507 0.013539 0.008608
-0.017122 0.032528 0.009168
-0.011900 0.029101 0.008795
-0.010355 -0.008495 0.008402
-0.011329 0.004233 -0.016705
0.022942 0.027233 -0.019990
0.020630 0.019283 0.008866
0.001776 -0.037528 0.009573
-0.006820 -0.023152 0.008608
-0.001536 -0.040979 0.009940
-0.001213 0.007700 -0.016759
-0.028048 -0.026387 0.009746
0.037245 0.010383 0.009916
-0.018614 0.032420 0.009597
0.007253 0.022017 0.008612
0.000383 -0.035767 0.009036
-0.033585 -0.026192 0.010433
-0.030965 0.016893 0.009088
0.028462 0.001427 -0.018616
-0.004834 -0.012980 0.008450
-0.004135 0.019152 0.008522
0.014668 0.001884 0.008486
0.010306 0.025719 0.008760
0.035520 0.011848 -0.020734
0.008201 -0.020428 0.008596
0.035415 -0.003702 0.009099
0.021982 0.029046 0.009068
0.002813 -0.037745 0.009766
-0.029238 0.009551 0.008893
0.022098 0.020163 0.009155
0.007439 -0.014507 -0.017412
-0.002291 -0.031441 0.008794
0.019567 0.012236 -0.017986
-0.034347 0.023956 0.010131
-0.032954 -0.004509 0.009161
0.024251 0.015738 0.009086
-0.006066 -0.004659 0.008346
-0.001987 0.023116 0.008615
-0.040928 -0.009051 -0.001436
0.002299 0.027882 0.008794
-0.039727 -0.001852 0.009584
-0.009615 0.029723 0.008794
0.025549 -0.015435 0.009120
0.031879 0.001499 0.008799
0.009706 -0.013168 -0.017397
-0.016465 0.004082 -0.017406
0.000183 -0.038465 -0.020662
-0.013747 0.022307 -0.018003
0.034192 -0.023196 0.010299
-0.031380 -0.014098 -0.017924
-0.018091 0.034745 0.009750
-0.018245 0.014308 -0.017996
0.024479 -0.023237 0.009355
0.023109 -0.006960 0.008674
-0.007408 0.040955 -0.017238
0.019608 0.030854 0.009103
0.022608 -0.016637 0.008770
0.005312 0.041443 -0.014064
0.021944 -0.035893 0.006849
0.040210 0.012361 -0.011329
0.005655 0.003379 0.008362
0.005111 -0.020986 0.008559
0.016579 -0.025330 -0.018872
0.040665 0.004236 0.010006
-0.034047 -0.024832 0.000470
-0.016675 0.038631 0.012270
0.013534 0.030803 0.009463
-0.013806 -0.039765 -0.011159
-0.024232 -0.026170 0.008945
0.015083 0.008100 0.008529
0.021125 -0.004935 0.008618
0.010937 -0.038251 0.009632
0.034007 0.010319 0.009103
-0.011022 0.027944 0.009050
0.023404 0.020089 0.008950
-0.021080 0.005952 0.008603
0.039164 0.000622 -0.020744
-0.037136 -0.019594 -0.015817
-0.024601 -0.034902 0.010900
-0.023526 -0.007928 -0.017861
-0.034723 0.024188 0.012153
0.009865 -0.025294 0.008604
0.018262 0.025878 0.008751
0.035355 0.023520 0.011443
0.016996 0.018515 0.008638
0.032183 -0.007741 0.009183
0.031371 -0.028255 -0.011742
0.019244 -0.036684 -0.018877
0.015520 0.028192 0.008863
0.027536 -0.020158 0.009483
-0.006636 -0.006680 -0.016594
0.003131 0.013987 0.008429
-0.008498 -0.027295 -0.018370
-0.011266 0.007923 0.008436
-0.019832 0.026131 0.009135
0.034869 -0.014053 0.009722
-0.023054 -0.034466 0.011607
-0.024256 -0.002444 -0.017902
0.007599 0.011339 -0.016711
-0.002466 0.025712 -0.018103
-0.007082 0.018678 0.008545
-0.007726 -0.025496 0.008596
-0.022674 0.005810 0.008603
0.041723 -0.004784 -0.000059
-0.016511 -0.014368 0.008547
0.006102 -0.042403 0.011181
-0.041524 -0.009882 0.011257
0.036343 0.020696 -0.015801
0.007221 0.017204 -0.017418
-0.012669 0.039227 -0.018814
-0.041150 0.008233 0.000704
-0.033819 0.022435 0.010015
-0.021147 0.020424 0.009070
-0.011137 -0.017526 0.008543
0.019164 -0.007924 0.008577
-0.015188 -0.001064 0.008387
-0.027045 0.010581 0.008949
0.038740 -0.001842 0.009911
0.015178 -0.034695 -0.020639
-0.011872 -0.010667 -0.017108
-0.016331 -0.014922 0.008563
0.008559 -0.040936 0.011686
0.026237 0.032696 -0.000219
0.009801 0.023050 0.008633
-0.012585 0.022468 0.008610
-0.022823 -0.000801 -0.017921
-0.012158 0.039966 0.010062
0.016084 -0.005292 0.008521
-0.003604 0.041747 0.010203
0.016023 0.021221 0.008636
-0.011093 -0.008561 0.008418
-0.000733 -0.005378 -0.016666
0.036272 -0.007265 0.009197
-0.001634 -0.024707 0.008596
-0.028069 0.019471 0.009353
-0.006375 0.027364 0.008783
0.025973 -0.004646 0.008679
-0.019175 0.015668 0.008605
-0.030044 -0.008423 0.008754
-0.040501 -0.006795 -0.019680
-0.005439 0.008090 -0.016780
0.011677 -0.040500 -0.008656
-0.015651 -0.039011 -0.004493
-0.025889 -0.033061 0.009688
0.027082 -0.005431 0.008739
0.035645 -0.020385 0.009890
0.020560 0.001604 0.008592
0.015560 0.010651 -0.017284
0.035069 -0.023180 0.009309
0.010245 0.040476 -0.002650
0.038390 -0.013335 -0.020352
0.034488 0.019038 0.009753
-0.038892 -0.016042 0.005613
-0.033552 -0.025326 -0.008163
-0.021606 0.035829 0.000712
-0.017875 0.028368 0.009319
-0.000164 0.028977 0.009030
-0.002066 0.027549 0.008708
0.016298 -0.016263 0.008592
0.020241 0.000382 0.008607
-0.000633 0.016796 0.008469
0.034654 -0.008352 0.009152
0.032868 -0.012425 -0.019513
0.039588 0.013611 -0.016829
-0.004838 0.029467 -0.018771
0.022644 0.034133 0.010581
0.022199 -0.019180 0.009082
0.011415 -0.040478 -0.016765
0.033480 0.012639 0.009023
-0.017006 0.038928 0.011122
0.023702 -0.014735 0.008788
-0.010513 0.025345 0.008646
-0.019256 0.011462 -0.017849
0.002103 -0.017606 0.008502
0.025495 0.033323 -0.010189
-0.016417 -0.038714 0.009705
0.028940 0.003692 0.009089
-0.005557 -0.018434 0.008532
-0.032337 0.012912 0.009240
-0.017334 0.019652 -0.017982
0.026607 -0.032642 0.001417
-0.000708 0.026409 0.008629
0.029655 -0.015477 -0.017755
-0.030402 0.004714 0.008918
0.018275 0.012115 0.008612
-0.034731 0.002195 -0.018621
-0.003221 -0.026914 0.008606
0.002161 -0.031994 0.008761
0.041631 -0.005673 -0.001200
0.024737 0.007593 0.008691
0.000293 -0.016631 -0.017449
0.025033 0.021050 0.009045
-0.009337 0.040700 0.003644
-0.011909 -0.028370 0.008968
0.003039 0.007347 0.008361
0.004226 0.030641 0.008873
0.026899 -0.009191 0.008950
-0.024105 -0.034950 0.012257
-0.022582 -0.003623 0.008564
-0.014567 -0.034657 -0.020547
-0.011271 0.014217 0.008513
-0.038856 0.005291 -0.020497
0.039929 0.013610 0.003677
-0.007288 -0.031510 0.008805
-0.024601 0.023400 0.009296
0.026981 -0.010804 0.009066
-0.030864 0.013204 0.009291
0.001099 0.009374 -0.016759
0.024629 -0.000873 0.008683
-0.021012 0.036889 0.011041
-0.038229 -0.009067 -0.020581
0.041981 0.007947 0.011499
0.009184 0.005692 -0.016804
-0.016717 -0.007036 0.008494
-0.036375 -0.021006 0.009869
0.001830 -0.002582 0.008340
0.022948 -0.015710 0.008733
-0.001994 0.028833 0.009057
0.035630 -0.009126 0.008996
-0.003377 -0.009362 -0.016712
-0.007852 -0.010962 0.008402
-0.001266 0.022974 0.008597
0.020783 -0.007553 -0.017806
-0.028450 0.023450 0.009225
0.034129 -0.023377 0.010391
-0.014999 0.000981 0.008408
0.009275 0.016660 0.008516
-0.034957 0.001717 -0.019015
0.034826 -0.017088 -0.020816
-0.020039 -0.011204 0.008564
-0.021607 0.006178 0.008601
0.002077 -0.024580 0.008612
0.016530 0.033490 -0.020678
-0.013438 -0.016255 -0.017340
0.009424 -0.002764 0.008397
0.019802 0.015060 -0.018045
-0.013808 -0.005751 0.008390
0.003261 -0.031968 0.008736
0.010199 0.028797 0.009003
-0.030007 -0.029569 -0.016620
0.032266 0.001339 0.008890
-0.024573 -0.034313 -0.009097
0.033199 -0.020885 -0.020792
0.007628 0.036965 -0.020688
0.006603 -0.013562 0.008433
-0.031087 0.022589 0.009878
-0.040575 -0.001866 0.009700
-0.038263 0.006617 -0.020546
-0.000458 0.009503 0.008401
-0.031515 -0.027315 -0.017595
-0.027947 0.029046 0.009788
-0.010298 0.029147 0.008884
0.031372 -0.025543 0.009655
-0.002324 0.028304 0.008915
0.010685 0.017625 -0.017361
-0.030245 0.028972 -0.004742
-0.008197 -0.032924 0.009380
-0.040584 0.010278 0.006651
0.026581 -0.033538 0.010712
-0.011024 0.018220 0.008547
0.021443 -0.007883 0.008629
0.030867 -0.028713 -0.007044
-0.028924 0.020632 0.009017
-0.030556 0.003429 0.008939
0.029961 -0.001823 -0.019031
0.005684 0.021432 -0.017961
-0.002839 0.009034 0.008379
-0.007368 0.032638 -0.017742
0.011700 0.020589 0.008637
0.010053 0.030370 -0.018314
0.020664 0.035359 -0.019334
-0.030619 0.012027 0.009106
-0.011073 0.015596 -0.017276
-0.014172 0.001233 -0.016416
0.012428 0.025542 0.008954
0.023296 0.017078 -0.018725
0.036563 -0.020773 0.001052
0.009854 -0.005390 -0.016818
-0.011758 -0.020583 0.008567
-0.031890 -0.015437 -0.019566
-0.006086 -0.031521 0.008740
-0.035038 -0.023056 0.009235
-0.020849 0.028486 0.009129
0.040476 -0.011704 0.004677
0.017178 0.018789 0.008643
0.018200 -0.038545 0.012270
-0.032850 -0.020104 -0.020620
-0.035955 -0.012639 0.009698
-0.014727 0.027175 0.008819
0.000234 -0.031966 0.008778
-0.010161 -0.007090 -0.016609
0.021887 0.036227 0.012321
0.033969 -0.007345 -0.018806
-0.027356 0.030630 -0.019030
-0.020836 -0.033754 0.009601
-0.010190 -0.003362 -0.016689
0.031870 0.014494 0.009263
0.026276 0.032554 0.008857
-0.006701 -0.034461 0.009302
-0.029353 0.002267 -0.018664
-0.017325 0.015444 0.008576
0.020764 0.025471 0.009213
0.014033 -0.018848 0.008595
-0.003234 -0.009481 0.008371
0.010318 0.030097 0.008810
0.007015 -0.011043 0.008430
-0.007512 -0.041402 -0.008209
0.018899 -0.024846 0.008846
0.002082 -0.040986 -0.019920
0.023635 -0.034624 0.012114
-0.041761 -0.002051 0.009182
0.021964 -0.010086 -0.018030
0.029457 0.019499 0.009145
-0.014885 0.033434 -0.020585
-0.000198 0.008119 -0.016744
-0.011252 0.021304 0.008622
0.009938 0.028949 0.008985
-0.023967 -0.027955 0.008977
0.021145 0.009904 0.008650
-0.000063 0.006702 -0.016710
-0.029703 -0.029843 -0.012088
-0.001280 0.016447 0.008498
0.009367 -0.033402 0.009421
0.024541 0.008132 0.008684
-0.018902 -0.026736 0.008913
0.000336 0.041902 0.007232
0.018505 -0.009711 0.008585
-0.023574 -0.034964 -0.013391
-0.029889 -0.004303 0.009074
-0.016253 -0.031016 0.009256
0.014830 0.012661 0.008572
0.034271 -0.018575 -0.020762
0.015670 0.038669 0.009662
0.023731 0.035142 0.010997
0.036617 0.020342 -0.010943
-0.009086 0.006245 0.008409
0.006434 0.017219 0.008520
0.002490 0.027223 0.008645
-0.030084 -0.013479 0.009032
0.030811 -0.022846 0.009947
-0.008839 0.024852 0.008582
-0.029778 0.009231 0.008811
0.010857 -0.035661 0.009313
0.000435 0.004651 0.008323
0.030261 -0.006875 0.008968
0.036523 -0.004761 0.009025
-0.019860 0.018629 0.008607
-0.013940 0.013822 -0.017200
-0.025559 -0.010572 0.008648
-0.025134 -0.014797 0.009035
-0.021068 -0.025360 0.009012
-0.017567 0.027555 -0.017825
0.011508 -0.007161 0.008447
-0.006162 0.039173 -0.020656
0.006258 -0.040950 -0.018902
0.039887 0.002607 0.009572
0.013999 -0.011006 -0.017525
0.008035 -0.021418 0.008594
-0.009785 0.032002 0.009389
0.019766 -0.036317 0.010657
0.020911 0.004529 -0.017551
-0.017307 0.019573 0.008566
0.024342 0.026895 0.009073
-0.008466 0.027802 0.009095
0.041448 -0.010543 0.011676
0.019948 0.033121 0.009902
-0.008725 0.024733 0.008616
-0.001799 0.033344 0.009386
-0.014562 -0.006623 0.008467
-0.009259 0.021059 -0.017948
-0.011300 -0.012026 0.008429
0.006979 0.001117 -0.016758
0.031532 -0.010381 0.009267
0.021405 0.006136 0.008628
0.037067 0.012984 -0.020850
-0.013110 -0.018691 0.008567
-0.022243 -0.001430 -0.017799
-0.041457 -0.006219 -0.008292
0.013596 -0.008381 -0.017427
-0.014698 0.035083 -0.020635
-0.010246 -0.033603 0.009274
0.011092 0.011900 0.008501
-0.018364 0.036767 -0.019001
-0.004213 -0.020880 -0.017250
0.000627 0.014926 0.008424
0.015315 0.013900 -0.017429
0.020771 0.006324 0.008612
0.010227 0.016647 0.008547
-0.026490 -0.032561 0.006435
0.033771 0.024523 -0.017238
0.035318 -0.004334 0.009129
-0.014983 -0.039442 0.012271
-0.027700 0.024431 0.009274
0.038921 -0.009387 -0.020640
0.013375 0.024226 -0.018438
-0.026863 0.032041 0.000340
0.016878 0.021984 0.008745
0.003241 0.037299 0.009708
0.008795 0.033893 -0.019568
-0.037699 -0.015227 -0.020178
-0.023389 -0.007995 0.008583
-0.005883 0.017788 -0.017336
-0.036644 0.020072 0.009038
0.039682 0.008568 -0.020407
0.040610 0.011697 0.003768
-0.000002 -0.037898 -0.020608
0.022166 -0.013484 0.008677
-0.002457 0.014327 -0.016908
0.012036 0.003664 -0.016822
0.041167 -0.008877 -0.010832
0.016257 -0.020816 0.008647
-0.007524 0.030549 0.008764
0.005584 -0.011614 0.008412
0.024531 -0.009557 0.008669
0.009466 0.040735 -0.001924
-0.019777 0.019430 0.008682
-0.001949 -0.039354 -0.020662
0.016650 -0.025619 -0.018847
0.029823 -0.029750 -0.010079
-0.005675 -0.024650 -0.018001
0.005120 -0.006164 0.008376
0.040182 0.012547 -0.007072
0.021471 -0.008013 -0.018005
0.010801 0.020199 0.008615
0.000246 0.000007 0.008332
0.037173 -0.003530 -0.020745
0.007353 -0.004965 -0.016719
0.039525 -0.012374 -0.018285
-0.000238 -0.012259 0.008419
-0.005473 0.030025 0.008968
-0.002819 -0.035609 0.009029
0.005127 0.041526 0.008438
-0.010654 -0.023421 0.008618
0.037723 0.016746 0.011059
0.023729 0.020846 0.008809
0.016033 -0.001465 0.008517
-0.000721 0.011232 -0.016776
0.023868 0.004947 -0.018015
-0.018744 -0.022225 0.008996
0.010827 0.030150 0.008804
-0.024726 -0.004960 0.008592
-0.000542 0.032385 0.008901
-0.000361 -0.023610 -0.017937
0.031644 0.027269 -0.012190
0.003778 0.040434 -0.020043
0.034773 -0.023740 0.003743
-0.014512 -0.001572 0.008378
-0.008468 -0.019405 -0.017278
0.016005 -0.013337 -0.017425
-0.005465 0.022384 0.008597
-0.011315 0.038431 -0.020465
0.006455 -0.020540 -0.017664
-0.003359 -0.009826 0.008368
0.004650 0.008730 -0.016768
-0.012136 0.039954 -0.003796
-0.002571 -0.024454 0.008602
0.009465 0.012530 -0.017227
-0.019656 0.015516 -0.017998
-0.025618 -0.011324 -0.018165
-0.001500 -0.008919 0.008373
-0.041890 -0.004467 0.011974
0.019310 0.002555 -0.017238
0.015630 -0.027094 -0.018725
-0.002592 0.031752 0.008740
0.020151 0.012131 0.008627
0.008154 0.024098 0.008643
0.003064 -0.036619 -0.020505
-0.011923 -0.000258 0.008359
-0.036891 0.001462 -0.020658
0.001902 0.014822 0.008453
-0.022757 0.002396 0.008586
-0.020611 0.017417 0.008614
-0.018422 -0.025649 0.008725
-0.035412 0.008025 0.008836
-0.025811 0.028245 -0.020642
0.012149 -0.034915 0.009135
0.003019 0.036071 0.008951
0.011411 -0.017937 0.008574
-0.020055 -0.009997 0.008557
0.000169 -0.020851 0.008565
-0.022544 0.005433 0.008592
-0.039235 -0.015565 0.010168
-0.027997 0.000463 0.008726
0.013205 0.034846 0.009609
-0.040918 -0.006655 -0.018851
0.000846 -0.023888 -0.017946
0.006813 0.032754 -0.017711
0.014961 -0.027488 0.008783
-0.020778 0.028661 0.009112
-0.016886 0.025136 0.008999
0.007004 0.000897 0.008368
0.000382 0.029611 0.009116
-0.014504 0.039148 -0.009125
-0.020773 0.029504 0.009029
-0.037274 0.017586 0.010862
0.029415 0.020033 0.009113
-0.001688 -0.020546 -0.017280
0.020286 0.026707 0.009413
0.035850 0.013792 0.009960
0.006841 -0.013869 0.008426
0.011799 0.024328 0.008634
0.017927 -0.021560 -0.018489
0.006127 0.007718 -0.016789
0.014937 0.004264 0.008494
-0.033434 -0.025592 -0.006492
0.022413 0.035342 -0.010418
0.041029 0.009953 0.008608
0.011786 0.033219 0.009150
-0.001261 0.022764 -0.017989
0.009807 0.030545 0.008867
-0.042126 0.005153 0.010532
-0.001171 -0.010980 0.008386
0.005585 -0.019662 -0.017285
-0.016183 0.007853 0.008511
0.004176 -0.041987 0.008852
-0.026950 -0.012832 -0.018704
0.022766 0.005558 -0.018032
0.005475 -0.040948 0.010812
-0.000520 -0.021035 -0.017354
-0.025742 -0.001451 0.008638
0.009884 0.023523 -0.018078
0.038561 -0.016636 -0.009299
0.037371 -0.015728 0.009613
0.006397 0.039868 -0.020352
0.010738 0.008320 -0.016733
0.007791 0.001224 0.008360
0.024358 0.033967 -0.016864
-0.037501 0.000690 0.009606
0.018694 -0.035523 0.009554
-0.006416 -0.007732 0.008354
0.019274 0.008646 0.008599
0.014332 0.037385 -0.020554
0.023582 0.027127 0.009011
-0.016292 0.003743 0.008463
-0.027199 -0.008856 -0.018405
0.020274 -0.018196 0.008664
-0.030501 -0.028835 0.000955
0.016006 -0.024960 0.009135
0.018239 -0.027317 0.008965
-0.024040 -0.012006 -0.017776
0.003411 0.026254 -0.018201
-0.000544 0.015123 0.008442
-0.017266 -0.022300 0.008738
0.009774 0.035873 0.009461
-0.025733 -0.006562 0.008584
0.038730 -0.011131 0.009479
0.004984 0.028538 -0.018689
0.017191 -0.024466 0.009158
-0.012669 -0.034309 0.008873
-0.021732 0.035689 0.008872
0.020464 0.009304 -0.017860
-0.032155 -0.005057 -0.017833
0.038567 0.009592 -0.020686
-0.003243 0.041693 0.006213
-0.028668 0.001510 0.008923
-0.033561 0.018576 0.009837
0.017855 0.026901 0.008872
0.010879 0.001674 -0.016779
-0.014334 -0.004959 0.008405
-0.019181 -0.034134 -0.020566
-0.004037 -0.041667 -0.017224
0.008920 0.000927 0.008375
0.014502 0.039095 -0.016743
-0.019180 -0.031380 0.008924
-0.029591 0.017325 0.009367
-0.025740 0.014451 0.009091
-0.037440 -0.019014 0.008591
-0.007868 -0.031266 0.008779
-0.016165 -0.030848 0.009324
-0.005081 0.029574 0.009032
-0.024734 0.007540 0.008609
-0.019460 -0.020636 0.008783
0.008283 0.040919 -0.004755
-0.038710 0.012491 0.010091
0.005563 -0.004027 -0.016726
-0.018235 -0.037926 -0.010787
-0.003993 0.007241 0.008367
0.003881 0.003779 -0.016686
0.014734 -0.021908 -0.018061
0.015558 0.006170 0.008509
-0.020676 -0.001046 0.008580
0.009092 -0.019496 -0.017590
0.018223 -0.037967 0.009623
-0.002917 0.004437 0.008338
-0.016653 0.008162 -0.017250
-0.002982 0.034348 0.009338
-0.037034 -0.020115 0.004116
-0.000192 -0.038233 0.009853
-0.041245 -0.010775 0.010870
-0.021991 -0.007788 -0.017961
-0.027509 -0.012839 0.009030
0.005713 0.009746 0.008375
0.009006 -0.041669 0.010743
-0.027416 -0.017784 0.008865
0.031548 -0.013767 0.009488
-0.026353 -0.021590 -0.017672
0.026103 0.032847 -0.011916
0.004849 -0.027289 0.008647
-0.021399 -0.005172 0.008577
0.005981 0.014473 -0.017375
-0.022029 -0.031134 0.009770
0.012686 -0.029781 0.008730
0.033705 -0.009104 0.009367
0.029930 0.001831 -0.019035
0.020727 -0.027900 0.009395
0.025998 -0.022468 0.009399
0.003814 0.038592 -0.020742
-0.022647 -0.024330 -0.017758
0.000817 -0.001725 -0.016649
0.014149 0.032524 -0.020057
0.007006 0.010557 0.008426
0.007069 -0.016057 -0.017488
0.021035 0.015014 0.008661
-0.001754 -0.024606 0.008604
-0.005883 -0.003911 0.008340
0.041242 0.004536 -0.017890
-0.004190 -0.006918 0.008362
-0.016828 -0.033608 0.009402
0.029707 0.009319 0.008950
-0.018466 -0.005690 0.008496
-0.027205 -0.003846 0.008608
0.019536 0.029884 0.009036
-0.036755 -0.017873 -0.019981
0.029445 -0.029096 0.010617
-0.017523 0.037941 -0.007478
-0.029083 -0.010048 0.008924
0.012267 -0.029976 0.008758
0.014343 -0.016621 -0.017776
-0.000275 0.041914 -0.003257
0.012572 -0.015350 -0.017251
-0.017687 -0.001833 -0.017231
-0.016519 -0.020427 -0.017856
-0.027905 -0.031481 -0.001240
-0.002386 0.041793 0.002247
-0.005542 -0.013700 0.008432
0.029969 0.004573 0.009086
0.028397 0.013538 0.008861
-0.013442 -0.000070 0.008380
-0.017166 0.020140 -0.017940
0.020379 -0.003295 0.008606
-0.016874 -0.022320 -0.018182
0.034947 0.016286 0.009957
0.018485 0.027310 -0.017516
-0.022894 0.001552 0.008580
-0.017569 0.011505 0.008559
-0.007352 -0.041432 -0.006799
-0.030837 -0.014150 -0.017438
-0.029430 0.001456 0.009086
0.019676 -0.004948 0.008578
0.001712 -0.024913 0.008623
0.018827 -0.038606 0.011680
-0.003957 0.036157 0.008958
0.006080 0.033022 0.009452
0.001870 0.042453 0.010864
-0.037826 -0.018486 0.010088
-0.021010 0.009963 0.008607
-0.013619 -0.003679 0.008348
0.003113 -0.001722 -0.016630
-0.012948 0.039260 0.011571
-0.009642 0.022914 0.008609
-0.034976 0.006329 -0.019698
0.010839 0.033583 -0.019838
0.035486 0.005354 0.009034
0.038757 0.009502 0.009633
-0.005395 -0.015931 0.008456
-0.008477 0.040169 0.010941
-0.019064 -0.006213 0.008497
0.027450 -0.019466 0.009375
-0.028296 -0.017077 -0.017834
0.018137 0.021144 0.008782
0.019448 -0.017189 0.008649
-0.001209 0.021752 0.008547
0.017215 -0.038011 -0.018075
0.003612 0.041708 -0.003825
0.027674 0.013092 -0.018894
0.008310 0.003448 -0.016784
-0.014143 0.024083 0.008716
0.023788 -0.017007 -0.018807
0.012589 0.025329 0.008895
0.011999 -0.010993 -0.017452
-0.033641 -0.022689 0.009762
0.041085 0.001489 0.010359
-0.024518 -0.021044 0.008654
-0.036138 -0.020673 -0.017912
-0.015441 0.021442 -0.017956
0.032841 -0.017626 0.009362
-0.032979 -0.025143 -0.018788
0.023137 -0.026824 0.009153
-0.000078 -0.006374 -0.016674
0.013671 -0.028097 0.008807
0.006178 -0.002529 -0.016727
-0.000234 0.028359 0.008855
0.004481 0.015767 0.008470
-0.016812 -0.035103 -0.020553
0.021455 0.029348 0.009062
0.032614 0.026176 -0.003736
-0.020144 -0.021289 -0.018546
0.013108 -0.024790 0.008775
0.026015 0.009871 0.008791
0.011388 0.016620 0.008556
0.019506 0.017891 0.008643
0.020286 -0.033554 0.009815
0.030519 -0.017051 0.009419
0.006532 0.000566 0.008359
0.023725 0.026777 0.009038
-0.036985 -0.018507 -0.019042
-0.017447 -0.003691 0.008446
0.021368 0.025101 0.009250
-0.000278 -0.017742 0.008475
-0.011352 -0.004844 -0.016670
-0.027762 -0.025169 0.009408
-0.011980 -0.030198 0.008819
0.038287 -0.018379 0.011872
0.010027 -0.023111 0.008651
0.028967 0.000380 0.009068
0.034216 0.024111 0.006203
-0.020597 -0.007667 -0.017651
0.025451 -0.033523 0.003581
0.022044 0.035603 0.008233
-0.017393 0.014313 0.008584
-0.038440 0.001425 -0.020389
0.039831 0.012772 -0.017014
-0.008806 -0.019584 0.008527
-0.019719 0.017839 0.008575
0.037332 0.007700 -0.020742
-0.028552 0.017420 0.009245
-0.029054 -0.020862 0.008940
0.022032 -0.010059 0.008665
-0.032533 0.013049 -0.018891
-0.041424 0.007083 -0.009686
0.013790 -0.018332 0.008600
-0.006984 0.004642 -0.016675
0.028592 -0.015215 0.008847
-0.019718 0.027549 -0.017905
0.008806 0.032512 -0.017897
-0.005469 0.024132 0.008626
-0.021557 0.005482 0.008593
0.028912 0.008326 0.009122
0.031057 -0.008236 0.008765
0.034031 -0.024665 0.011929
0.014050 -0.001974 0.008480
-0.030990 -0.026481 0.009988
0.003420 0.010761 0.008411
0.010173 0.035193 0.009069
-0.011140 0.031479 0.009373
-0.032081 0.006568 0.008987
0.042266 0.004734 0.011702
0.002547 0.033475 -0.017793
0.030185 0.026743 -0.020222
0.038329 0.012623 0.009651
0.014472 0.030026 0.009396
0.022845 -0.011531 0.008672
-0.037468 -0.015748 0.009956
0.013042 -0.040619 0.010594
-0.016332 0.031714 0.009043
0.016382 0.003969 -0.017602
0.028333 -0.014218 -0.018476
-0.021910 0.031941 -0.020639
-0.018994 -0.021274 0.008818
0.004772 -0.026906 -0.018210
-0.029548 0.011101 0.008834
-0.009135 -0.011651 0.008413
0.033494 -0.016904 0.009523
0.004841 0.005067 -0.016590
0.016850 0.038238 0.006561
0.005304 0.035878 0.008970
-0.029791 -0.007751 0.008873
0.016592 0.037839 0.011873
-0.013974 0.013299 0.008543
-0.010702 -0.032424 0.009440
-0.027051 -0.010054 0.008967
-0.007071 0.030875 0.008750
-0.003282 -0.041961 0.009345
0.010909 0.033314 0.009225
0.037796 0.019825 0.010921
-0.029796 -0.029479 -0.017086
0.000571 -0.038534 0.009879
0.017349 -0.019313 -0.018052
-0.012799 0.004004 0.008428
0.001600 0.031176 0.008833
0.019230 -0.021403 0.008985
-0.018636 -0.017285 -0.017961
-0.004554 0.011396 0.008419
-0.007848 -0.016453 0.008482
-0.029121 0.011800 0.008822
0.011009 0.036697 0.009923
-0.021182 -0.003359 -0.017323
-0.001631 0.040964 0.009997
0.000829 -0.025941 0.008618
-0.017760 0.021210 0.008683
0.024202 0.004852 -0.017997
0.025255 0.014889 -0.018767
0.035291 0.018778 -0.020541
0.005646 -0.041810 0.008737
-0.022891 -0.013590 0.008527
-0.031669 -0.016144 -0.019749
0.041589 0.007089 -0.002939
0.008959 0.008124 0.008419
0.029407 -0.008129 0.009111
0.002972 0.024327 0.008644
-0.027152 0.031837 -0.005550
0.016058 0.033733 0.009598
-0.009997 -0.035057 0.008915
-0.016134 -0.031471 -0.019445
0.024051 0.007669 0.008699
-0.005614 0.033843 -0.018164
0.038598 -0.013127 -0.020207
-0.020376 -0.028989 0.009095
0.000711 0.018769 0.008506
0.018036 0.001765 0.008539
-0.014315 -0.031402 0.009410
-0.007652 0.034699 -0.020093
0.036533 -0.020433 0.011937
0.042118 0.003937 0.012183
-0.012830 0.004821 0.008432
0.011956 -0.032675 -0.018699
0.023405 -0.019916 -0.018868
-0.005118 0.035482 0.008985
0.022605 -0.007829 0.008663
0.001694 -0.010171 0.008375
-0.009235 0.015043 0.008508
-0.014156 0.014803 0.008536
-0.030237 -0.025510 -0.020548
0.040859 -0.001208 0.010315
-0.001359 0.008153 0.008360
0.013900 0.017184 0.008603
0.027709 -0.005160 0.008898
-0.004610 0.028660 0.009114
-0.016454 -0.037216 0.009518
0.013578 -0.023614 0.008602
0.004716 0.008860 0.008380
-0.033806 -0.025703 0.012062
0.000482 0.004832 0.008337
-0.027362 -0.005829 0.008725
0.016120 -0.034797 0.009835
-0.019162 0.032816 0.009819
-0.041148 0.009237 0.011491
0.002921 0.017474 0.008512
-0.032768 0.010028 -0.017678
-0.025237 -0.034549 0.011830
-0.004829 0.038144 0.009921
0.029833 -0.020312 0.009040
0.027524 0.031469 -0.013233
0.000599 -0.016117 0.008473
-0.030863 -0.028662 -0.010738
-0.010478 -0.015127 0.008481
-0.014633 -0.039458 -0.014363
0.039023 0.012843 -0.019429
0.030131 0.027712 0.010147
0.005478 0.002602 -0.016649
-0.016972 0.001440 0.008485
-0.013981 0.005758 0.008435
-0.036842 -0.018224 -0.019632
-0.033677 -0.025197 -0.012521
0.004004 0.040291 -0.020142
-0.013025 -0.016422 -0.017283
0.001265 -0.036347 0.008900
-0.005970 0.033195 0.009417
-0.035363 0.020652 -0.019600
0.022285 -0.017148 0.008815
0.026674 -0.032655 -0.001487
-0.018573 -0.024776 -0.018656
-0.017769 -0.028072 -0.017824
-0.039296 0.014459 -0.016992
0.013227 -0.004464 -0.016789
-0.018425 0.001087 0.008497
-0.014265 0.029747 0.009147
-0.017382 0.004269 0.008492
0.026268 -0.032577 -0.017221
-0.000294 0.035486 0.009063
-0.011006 -0.012186 -0.017135
-0.002358 -0.019256 0.008507
0.002051 -0.040813 -0.020109
-0.005533 -0.011085 0.008413
-0.008560 0.008744 0.008416
0.021692 -0.013703 0.008657
-0.006597 0.017810 0.008528
0.022438 0.035336 -0.011131
0.026656 0.031963 0.012119
-0.012994 -0.020994 0.008572
-0.007141 -0.017045 0.008513
0.029668 0.026448 0.009728
-0.012893 -0.001066 -0.016642
0.033101 0.000798 0.009244
0.001841 0.028452 -0.018617
0.023070 0.033871 0.010543
-0.018237 0.037452 0.009854
0.024092 -0.015030 -0.018528
0.032426 -0.021833 -0.020785
0.039450 0.014157 -0.015546
-0.022414 0.002738 0.008589
0.031150 -0.024734 0.009673
0.021154 0.004961 0.008636
0.021000 0.022331 -0.018689
0.007076 0.029230 0.009130
-0.036403 0.020623 -0.015476
-0.018286 0.007261 0.008550
0.038235 0.010539 -0.020720
-0.005902 -0.016845 0.008482
0.011036 0.014542 0.008539
-0.006792 -0.039589 0.009540
-0.002369 0.033032 -0.017643
0.025198 -0.016503 0.009119
-0.005326 0.009016 0.008388
-0.015175 -0.008637 0.008478
-0.026683 -0.004999 0.008611
-0.027944 -0.032248 0.010549
-0.021380 0.035998 0.004174
-0.033400 -0.017945 -0.020530
0.040455 0.012064 0.010159
0.026418 0.021473 -0.018434
-0.013494 -0.005500 0.008373
0.014771 -0.034714 0.009610
-0.020573 0.026437 -0.017671
0.036586 -0.014271 -0.020747
0.017534 0.025454 0.008926
-0.020828 -0.008090 0.008550
0.036890 0.000452 0.009131
0.015023 0.009349 -0.017402
0.030973 -0.028661 -0.007396
0.007704 0.031696 -0.017851
-0.000468 0.009707 0.008382
0.013466 -0.024408 -0.018446
-0.024520 -0.033637 0.011877
-0.018486 -0.018544 0.008550
-0.033887 0.024485 0.008361
-0.010498 0.016987 -0.017297
-0.024458 0.023075 0.009331
0.017763 0.038530 0.010715
0.027131 0.025109 0.009289
0.001336 -0.011597 0.008389
-0.003774 0.005830 0.008355
0.011856 -0.017554 0.008564
0.026648 -0.018430 0.008774
0.028538 0.010140 0.009059
-0.002389 0.041762 0.005983
-0.032473 0.025322 0.010880
-0.006349 0.022150 0.008595
-0.015198 0.023671 -0.018407
0.014735 -0.025291 0.009049
0.031748 -0.012481 -0.018073
-0.013190 0.015076 0.008547
-0.018431 -0.014915 0.008593
0.017447 -0.037680 -0.018887
0.000467 0.021124 0.008570
0.002438 -0.000310 0.008369
0.021451 -0.007199 0.008637
0.008724 0.028904 0.009077
-0.036818 0.020959 0.011895
-0.024395 0.011441 0.008584
0.017250 -0.009887 0.008572
0.020219 -0.016656 -0.018028
-0.023963 0.014513 0.008779
-0.000413 0.030607 -0.018779
0.005604 0.000650 -0.016645
-0.025021 0.024836 -0.019536
0.013968 -0.040384 0.010767
0.009781 -0.022813 0.008651
0.034892 0.022944 -0.012572
0.014273 -0.025734 -0.018825
0.006912 -0.011575 0.008414
0.038846 -0.012901 0.010340
-0.015347 -0.023380 0.008662
0.016596 -0.001003 0.008518
0.000579 0.013733 0.008428
0.001936 0.007669 0.008353
0.030417 -0.000466 0.009073
0.027434 0.011341 -0.018813
0.001474 0.006203 0.008363
0.041978 -0.002416 -0.007223
0.036576 -0.020752 0.005831
-0.017130 0.003317 0.008468
0.011292 -0.016542 0.008556
-0.013693 -0.000305 -0.016533
0.008602 -0.009402 0.008446
0.014121 -0.017897 0.008597
0.041449 -0.006760 -0.015704
0.001256 -0.008430 0.008371
-0.031629 0.009001 0.009093
0.017138 0.007351 -0.017277
0.015857 0.032130 0.009041
0.025923 0.032054 -0.018705
-0.025732 0.032969 -0.000590
0.001230 -0.015163 -0.016980
0.032751 0.010567 0.009451
-0.023040 0.017314 0.009005
-0.004202 -0.031722 0.008710
-0.006513 0.023728 0.008634
0.015335 0.039630 0.011954
0.011184 0.033057 -0.019325
-0.019806 -0.016380 -0.017836
-0.010353 -0.017285 -0.017194
-0.000122 -0.011211 0.008375
-0.040250 0.005934 0.010244
-0.041477 -0.005868 0.006240
-0.006122 -0.041652 -0.010446
0.026411 0.027006 0.009768
0.040665 0.011063 -0.003862
0.039288 -0.014777 -0.015010
0.006116 -0.035691 0.008919
-0.008657 -0.029635 0.008951
0.017961 -0.018964 -0.018068
-0.023635 0.013004 0.008602
0.028889 -0.015737 0.009045
0.002287 0.008386 0.008361
0.013876 -0.022491 -0.018087
0.012576 -0.011701 -0.017539
0.000070 -0.042193 -0.016674
0.031257 -0.016339 0.009259
-0.001496 -0.030107 0.009103
0.021845 0.035481 -0.017323
0.006607 0.028930 0.009192
-0.008086 0.040992 0.007875
-0.009459 -0.014252 0.008473
0.035472 0.005743 -0.020254
-0.004829 -0.002558 0.008330
-0.034652 -0.007634 0.009033
0.006641 0.032747 0.009384
-0.016125 -0.024441 0.009049
-0.008426 -0.037243 0.009815
-0.017756 -0.026419 0.008665
-0.020358 0.037327 0.011589
0.042327 0.004272 0.011878
0.012305 -0.038381 0.009530
-0.018567 -0.019973 -0.017915
-0.022858 -0.018503 0.009033
-0.033461 0.000517 0.009254
-0.038975 0.015197 0.007575
-0.010826 0.035888 -0.020600
0.016689 -0.004122 0.008509
-0.016794 -0.005663 0.008425
0.000475 0.034007 0.009445
-0.017235 0.010578 -0.017267
-0.005977 -0.018746 0.008521
-0.010596 0.036016 0.009757
-0.012235 0.029908 0.008904
0.030421 0.012906 -0.017832
0.017171 -0.001240 0.008539
0.027014 0.015948 0.008836
0.021228 -0.036312 -0.016653
0.035381 0.005962 0.009015
-0.001638 0.012478 0.008424
-0.021401 -0.028886 0.008933
0.027336 -0.005596 -0.018394
-0.002641 -0.042122 -0.010953
-0.000971 0.041757 -0.010236
-0.037578 -0.017093 0.011118
0.022931 -0.029179 -0.020656
0.022283 0.035402 -0.005497
-0.022320 0.034102 -0.019671
-0.011446 -0.008199 0.008419
0.019515 0.012991 0.008649
0.027012 0.020374 0.009501
0.011784 0.038972 0.009760
0.008564 -0.012629 -0.017126
0.017413 0.017774 0.008652
-0.023337 0.020760 0.008823
0.021164 0.020662 -0.018908
-0.018624 0.016265 -0.018010
0.019987 0.008861 0.008620
0.024431 -0.022307 0.009131
0.023553 0.020671 0.008837
0.008237 0.004598 -0.016700
0.041352 0.002342 -0.018262
0.034564 -0.022678 0.010482
0.017838 0.032909 -0.020636
0.028615 -0.015554 0.008949
0.032914 -0.020383 0.009920
0.009823 -0.028104 0.009136
0.000610 -0.002310 0.008355
-0.023495 -0.009144 0.008590
-0.040795 -0.009532 0.008653
-0.035862 0.009378 -0.020546
-0.027223 0.023214 0.009004
-0.032726 0.017703 0.009470
-0.019925 -0.037836 0.011396
0.010330 0.040124 -0.017487
-0.025686 0.012207 0.008897
0.004374 -0.037997 -0.020639
-0.019013 -0.030510 0.008959
-0.000287 0.031332 0.008788
0.011523 0.011801 0.008512
-0.041250 -0.004911 -0.018353
-0.015760 0.039285 0.010824
-0.012970 0.025829 0.009037
0.022043 -0.035875 0.008897
0.038625 0.016267 -0.011169
0.009255 -0.040282 0.010584
-0.040458 -0.012230 0.010323
-0.001293 -0.000136 0.008331
0.004287 -0.034198 0.009462
-0.023622 0.014722 -0.018253
-0.002158 -0.028706 0.008958
-0.000611 0.015464 0.008447
-0.018679 0.029504 0.009216
-0.033273 -0.025722 0.002158
-0.033890 -0.015155 0.009207
-0.010658 -0.040164 0.011664
0.039210 0.002107 0.009789
-0.000581 0.007876 0.008371
0.013979 -0.030682 0.009344
0.007615 0.013344 0.008451
-0.002320 -0.041632 0.011662
-0.021440 -0.015251 -0.017869
-0.005478 -0.035312 0.009043
-0.031316 0.021696 0.009876
0.021896 -0.001157 0.008649
0.012591 0.026344 -0.018812
0.037051 0.007026 0.009882
0.000981 -0.024461 -0.017987
-0.008542 0.009396 0.008427
0.014995 -0.020988 0.008624
0.008999 -0.035376 0.008918
-0.021649 0.034947 -0.019067
0.023396 0.034739 -0.005790
0.013458 0.015399 -0.017361
0.005397 -0.000079 0.008376
-0.023804 0.009306 0.008598
0.001050 -0.012711 0.008422
-0.006621 -0.040763 0.010766
0.021207 -0.001112 0.008620
0.004045 -0.012685 -0.016779
-0.019692 0.002326 0.008540
0.012864 0.001746 -0.016809
0.019473 -0.027229 0.009252
-0.012598 -0.012415 -0.017334
-0.019691 0.018568 0.008607
-0.008248 -0.019648 0.008520
-0.000308 0.041706 -0.016215
-0.004173 0.038702 -0.020724
0.019891 -0.030804 0.008953
-0.038064 0.017478 -0.007240
0.009802 0.000489 0.008409
0.011298 0.020002 0.008635
0.005149 0.013925 0.008465
0.028843 -0.024837 0.009946
-0.002853 0.022335 0.008584
-0.018975 0.010132 -0.017550
0.024726 -0.009542 0.008633
-0.028818 0.031256 0.010740
-0.015858 -0.013469 -0.017121
-0.029348 -0.007667 0.008969
-0.023535 -0.023401 -0.017824
-0.018078 -0.010877 0.008548
-0.001613 -0.008828 0.008364
-0.009135 0.026105 0.008695
0.033593 -0.003733 0.009487
0.020669 -0.002192 0.008616
0.037038 -0.019911 0.001393
-0.003487 -0.041921 -0.006829
-0.005726 -0.011129 -0.016664
-0.022602 0.017484 0.008932
-0.017027 -0.035520 -0.020575
-0.019783 0.005218 0.008534
0.028549 -0.000328 0.008988
0.000904 -0.036621 -0.020568
0.016151 -0.028027 0.008815
0.015959 0.028351 0.009013
-0.036925 0.016991 -0.020122
-0.004077 0.025704 0.008623
-0.032292 -0.026804 0.008251
0.014989 -0.001702 -0.017132
0.017644 -0.032009 0.009014
0.016532 0.025702 0.009013
0.041028 0.006105 -0.017752
0.025313 0.014406 -0.018774
-0.009358 0.020436 0.008549
0.005414 -0.031340 0.008784
0.024300 0.006281 0.008667
0.022185 -0.020751 -0.018893
-0.021718 -0.022626 0.008702
0.017812 -0.038135 -0.014718
0.028231 0.021340 0.009161
-0.023194 0.030808 0.009818
0.026252 0.011498 -0.018570
0.004184 0.013792 0.008462
0.009315 -0.041079 -0.011762
0.013761 -0.006786 0.008499
-0.028269 0.014531 -0.018312
-0.035421 0.021626 0.011889
0.027281 0.010684 -0.018698
-0.019753 -0.010100 0.008544
-0.020684 -0.002515 0.008565
0.011682 0.015703 0.008558
-0.025108 -0.028759 -0.020567
0.038508 -0.010788 0.009583
0.021942 0.012341 0.008707
0.002291 -0.042142 -0.011822
0.015770 -0.013239 0.008566
0.027969 0.008533 0.009121
0.038502 -0.016872 -0.000663
0.039385 0.011510 0.010566
0.025607 0.032108 0.010342
-0.016946 -0.021393 -0.018038
0.002124 0.005283 -0.016714
-0.008369 0.024863 0.008588
-0.016307 -0.000247 0.008451
-0.029843 -0.008831 0.008804
0.035070 -0.000049 0.009308
-0.027622 0.009328 -0.018577
-0.022684 0.027606 0.008974
0.007033 -0.019465 -0.017401
0.015257 0.037335 -0.020226
-0.019048 -0.002098 0.008502
-0.011090 0.006755 0.008418
-0.004606 -0.028353 0.008886
0.037339 0.019208 0.004700
-0.008584 0.023933 0.008600
-0.009118 0.037115 -0.020645
0.026626 -0.032279 -0.017269
0.035059 0.002344 0.009286
-0.012110 -0.006620 0.008377
0.016319 0.022481 -0.018580
0.019801 0.027230 0.009461
-0.019183 -0.028075 0.009417
0.000907 -0.040924 0.009943
0.028696 0.005009 -0.018724
0.035376 0.022252 0.011997
0.014085 0.008429 -0.017466
0.027675 -0.004314 0.008828
-0.007286 0.017028 0.008503
-0.007082 -0.041099 -0.017825
-0.016681 -0.038558 -0.004869
-0.008638 -0.022220 -0.017940
-0.001670 -0.028514 0.008867
-0.040868 0.009275 -0.007596
-0.032757 0.001201 0.009028
-0.007450 0.018299 0.008549
0.012125 -0.032814 0.009357
0.035223 0.022417 -0.016162
0.014242 0.005447 -0.017178
-0.020884 0.016946 -0.018198
0.004906 -0.005552 0.008339
0.011034 -0.038151 -0.020666
0.024679 0.026295 0.009079
-0.006626 -0.039817 -0.020447
0.017371 0.032798 0.009468
0.038233 -0.010714 -0.020759
-0.010212 0.016871 0.008529
0.008038 0.000872 -0.016769
-0.002418 -0.035726 0.009017
-0.022496 -0.013396 0.008548
0.027286 -0.016816 0.008818
0.022040 0.023589 -0.018008
0.002069 -0.042061 -0.016901
0.018272 0.001022 -0.017367
0.028986 -0.019769 0.009349
0.037293 0.005855 0.009785
-0.016441 -0.024811 0.009138
-0.027723 0.007110 -0.018404
-0.040795 -0.008053 -0.018493
-0.003048 -0.036683 -0.020598
-0.001359 0.030688 -0.018792
0.026950 0.032042 0.002233
-0.012868 0.027122 0.009029
0.031969 -0.027451 -0.013289
-0.019713 0.014446 -0.017948
-0.006374 -0.034455 0.009292
-0.008221 0.029158 0.009013
0.026449 0.032333 -0.017209
0.022947 -0.019933 0.009100
0.014405 -0.029140 0.008793
-0.023330 -0.026421 0.009150
-0.026228 -0.007090 -0.017790
-0.027736 -0.028882 -0.020497
-0.029111 -0.014837 0.008828
0.004858 -0.012972 -0.016805
0.010574 0.008252 0.008439
-0.003111 0.031371 0.008737
0.000706 -0.042169 0.008304
0.007218 0.007249 -0.016781
-0.004570 0.001504 0.008325
-0.034609 -0.023913 -0.010285
-0.018768 0.022899 0.009121
0.010084 -0.028030 0.009142
0.005013 0.031843 -0.017996
-0.006837 -0.028297 0.009042
-0.017749 -0.033313 0.009600
0.009367 -0.007268 0.008413
0.030399 -0.024605 0.009822
-0.027470 0.028813 0.009665
0.010417 -0.024233 0.008606
0.024077 0.009274 0.008680
-0.031482 0.023652 0.009703
-0.015787 -0.023351 0.008724
-0.001143 -0.024228 -0.017922
0.026731 0.018651 0.009034
-0.020100 -0.019946 0.008741
-0.028117 0.019280 0.009351
-0.008195 -0.027596 -0.018445
0.011713 0.002370 0.008438
-0.002563 0.005338 -0.016672
0.021529 0.026292 -0.018327
-0.023726 -0.029763 0.009759
-0.028201 -0.026552 -0.020569
0.033856 0.024571 0.002027
0.039160 -0.012251 0.010472
0.021326 0.036095 0.003151
0.029347 0.003361 0.009144
0.009033 0.027332 0.009097
0.023191 -0.014345 0.008667
0.041331 -0.008005 -0.009307
-0.020441 0.020010 0.008949
0.004907 0.040833 0.011480
-0.020405 -0.017378 0.008561
-0.018956 0.010902 0.008582
0.038604 -0.016557 -0.004035
-0.013114 -0.015944 0.008527
0.014801 -0.030842 0.009478
0.003623 0.010606 -0.016751
-0.015577 -0.039104 -0.016468
0.013623 0.018877 0.008610
0.034668 -0.023850 -0.009587
-0.002956 0.025509 0.008618
-0.018876 -0.015133 0.008589
-0.003291 -0.034892 -0.019091
-0.016899 0.001022 0.008485
0.018531 -0.015060 0.008649
0.033435 0.026062 0.010532
-0.020674 -0.018218 0.008609
-0.033576 -0.024438 0.010973
0.013042 0.026183 -0.018833
0.002330 -0.035557 0.009113
0.041501 -0.007021 0.002339
0.036126 -0.010879 0.009793
-0.020926 -0.037270 0.011690
0.041242 -0.008454 -0.010635
0.024555 -0.034157 -0.009386
-0.009112 0.017954 0.008548
0.000875 0.018001 0.008507
-0.002301 0.041735 -0.002702
0.000929 -0.042285 -0.012013
0.007947 -0.001903 0.008358
0.016214 0.011115 0.008562
0.015709 -0.035553 -0.020627
0.003148 0.041159 -0.018472
0.028325 -0.024509 0.009581
0.036212 -0.022097 0.010308
-0.028843 -0.010084 -0.018780
-0.006241 -0.011284 0.008386
-0.026588 -0.028324 0.009808
0.004691 0.007734 0.008378
0.018054 0.005639 0.008563
0.025726 -0.025945 0.009005
-0.041786 0.004104 -0.005501
-0.014714 0.039062 -0.012445
0.024297 0.029565 -0.020770
-0.023758 -0.018536 0.009051
0.018605 -0.027481 -0.017900
-0.011250 -0.018971 0.008550
0.011195 0.001381 -0.016737
-0.018250 0.013839 0.008578
0.035998 -0.008221 0.009191
-0.010852 0.009122 0.008418
0.014149 -0.022494 0.008612
-0.020651 -0.023955 0.008683
0.013750 0.032556 0.009155
-0.029015 0.009931 0.008944
-0.019993 0.022901 0.008986
-0.034385 -0.025200 0.011342
-0.017707 -0.006233 0.008478
-0.040870 0.002211 -0.020204
0.002059 0.008785 0.008359
0.015776 0.022282 0.008672
-0.029257 0.029898 -0.003133
-0.035065 -0.023303 0.001232
0.010074 -0.019799 0.008590
0.029959 -0.021140 -0.020635
-0.014268 0.040044 0.011440
0.014922 -0.031976 -0.019550
0.009557 -0.039853 -0.019847
0.013883 0.002236 0.008464
-0.013620 0.024219 -0.018324
0.026353 -0.032855 0.005435
-0.016809 -0.024518 -0.018622
0.022061 0.021229 0.009001
0.004242 0.008988 -0.016799
-0.011190 0.039697 -0.018804
-0.009762 -0.040955 -0.004791
0.039356 0.012947 -0.017987
-0.029459 0.004209 0.009073
-0.005364 0.014905 0.008455
-0.021187 0.002524 0.008577
0.035840 -0.021174 -0.018186
-0.023818 -0.028514 0.009173
0.036402 0.020731 0.010007
0.012895 -0.023545 0.008609
0.006103 -0.041618 -0.015138
0.013371 -0.008653 0.008509
0.008529 -0.028963 0.009103
-0.001464 0.014229 0.008443
0.001321 -0.030031 -0.018854
-0.007625 -0.008979 0.008356
-0.012409 0.010198 -0.017403
-0.027199 -0.027882 -0.020660
-0.037778 -0.000597 0.009893
-0.041677 -0.004175 0.002252
-0.011978 -0.008959 0.008441
-0.016009 -0.036707 0.009545
0.003448 0.028763 0.009098
0.024888 -0.003949 -0.018015
-0.019718 -0.023869 0.008857
-0.013299 0.028526 0.008785
0.028417 -0.008530 -0.018845
0.002829 -0.013635 0.008442
0.028116 -0.025129 0.009723
0.029766 -0.029095 -0.017684
0.042023 -0.001123 -0.009464
-0.002544 -0.036347 0.008931
-0.019331 0.006522 0.008547
0.041428 0.008227 0.005925
0.005489 0.023217 0.008615
-0.027340 -0.031906 0.006488
0.008015 -0.023373 0.008613
0.007894 0.031198 0.008894
-0.006384 -0.022951 0.008595
0.015005 -0.014512 -0.017470
0.028826 0.025152 0.009944
-0.020862 0.034812 0.009764
-0.034007 -0.009568 0.009064
-0.021221 0.035990 -0.017121
0.024644 0.027426 0.009303
0.018238 0.028749 0.009498
-0.028072 0.019915 -0.018250
-0.019292 -0.005876 -0.016963
-0.001359 -0.031347 0.008852
-0.031928 0.014880 -0.019390
-0.006693 -0.011961 0.008424
-0.041467 -0.005667 -0.014578
-0.030847 0.002332 0.008882
-0.010328 0.026747 0.009014
0.027990 -0.022201 0.009084
0.002352 0.001013 0.008339
-0.006434 0.003033 0.008360
-0.012395 -0.038305 -0.020450
0.011439 -0.030842 -0.017939
0.009506 0.029629 -0.018684
0.023428 0.034682 0.009862
-0.009643 0.027589 0.009104
0.025197 -0.018747 0.008879
-0.029874 -0.005495 0.009033
0.021243 0.017163 -0.018326
0.007905 -0.007099 -0.016824
-0.003113 0.010684 -0.016787
-0.003923 0.017767 0.008508
-0.028675 -0.030853 -0.012923
-0.009940 0.020892 0.008575
-0.017379 0.011798 0.008565
0.007073 0.038203 -0.020733
0.025743 0.029558 -0.020742
-0.026588 -0.029228 0.009640
0.004147 -0.004630 -0.016624
0.029025 -0.017699 -0.017979
-0.017306 -0.001287 0.008479
0.031820 0.009899 0.009237
0.038395 -0.015125 0.010546
-0.021925 -0.014441 0.008549
0.032973 0.025565 -0.013720
-0.023038 0.021654 0.008783
0.010409 0.040365 -0.014814
-0.005426 0.036674 0.009425
-0.018469 0.008447 0.008559
-0.016729 0.038074 -0.017417
0.005588 -0.019786 0.008544
0.023364 -0.035056 -0.000331
0.032847 -0.012980 -0.019812
0.001568 -0.030760 -0.018786
0.014592 -0.029499 0.009027
-0.034531 0.011632 0.008885
-0.004441 -0.024631 -0.017974
-0.023316 0.025197 -0.018399
0.035115 -0.008063 -0.020311
-0.014509 -0.005177 0.008414
0.014801 0.027456 0.008810
0.017824 -0.035719 -0.020703
0.012134 -0.025199 0.008725
-0.028405 -0.030983 0.002691
0.009711 -0.040549 0.011551
0.031874 0.027954 0.010397
-0.002941 0.035864 0.008914
-0.014098 -0.017425 -0.017707
-0.020278 0.005580 -0.017139
-0.010183 0.040494 0.004691
-0.030540 0.024847 -0.020613
0.030652 0.002371 0.008977
0.011188 0.020868 0.008618
0.007098 0.028033 0.009066
0.018099 0.019837 0.008653
0.009544 -0.015832 -0.017420
-0.024571 -0.010969 0.008571
0.000630 -0.031778 0.008775
0.023452 -0.028410 -0.020666
-0.015446 0.020674 0.008609
-0.001457 -0.042103 0.008860
0.009338 0.036509 -0.020703
0.022949 -0.005214 -0.017931
-0.029517 -0.030116 -0.009870
0.013143 -0.005781 -0.016918
0.017425 0.025605 0.008904
-0.026728 0.021242 -0.018040
-0.015728 -0.015483 -0.017572
0.020813 0.023940 0.008803
0.003039 -0.007461 -0.016699
-0.010819 0.016669 0.008547
-0.012977 -0.040210 0.010038
0.013947 0.033234 -0.020424
0.002416 0.005619 0.008364
0.006650 0.039598 0.009611
-0.029266 -0.031092 0.011783
-0.026790 -0.011792 0.009044
-0.032996 0.015797 0.008929
-0.000204 -0.034222 0.009444
-0.011012 0.004441 -0.016703
0.018856 -0.037006 0.011613
0.008416 0.023171 0.008663
-0.002908 0.025938 0.008615
0.012273 -0.003344 -0.016821
0.029038 0.010755 0.008908
-0.022412 0.011212 0.008635
0.002371 -0.042122 0.008342
0.032148 -0.003745 0.008945
-0.027011 -0.012400 -0.018640
0.002929 0.029456 -0.018760
0.036257 -0.014030 -0.020776
-0.017486 -0.009878 0.008528
0.002671 -0.042423 0.012156
-0.019012 -0.012885 0.008571
-0.005252 0.033035 -0.017731
0.031096 0.009702 0.008899
0.010536 0.034628 -0.020527
-0.037522 -0.018882 0.008174
0.033156 -0.024545 0.010287
-0.011690 0.024692 -0.018197
-0.006038 0.037368 0.009864
0.008794 0.026286 -0.018374
0.018485 0.032566 -0.020696
0.011118 -0.030573 0.008854
-0.020154 0.013733 0.008596
-0.041953 -0.000542 -0.006498
-0.039828 0.012943 -0.013974
0.027195 -0.003283 -0.018221
-0.022230 0.000968 0.008567
-0.033378 0.011903 -0.019635
-0.002373 0.038775 -0.020756
0.028380 0.030714 0.009834
-0.021855 0.024270 0.008989
-0.025517 0.026774 -0.020646
0.010503 0.016579 0.008558
0.037939 -0.018126 0.002253
-0.031872 -0.028458 0.012146
0.024161 0.014954 -0.018588
0.004574 0.041290 0.011964
0.013748 0.023192 -0.018178
0.006365 0.006092 0.008373
0.003975 0.032893 0.009264
-0.041290 0.007669 -0.007164
0.022780 0.012602 -0.017999
-0.026518 0.016911 0.008829
0.003525 -0.032509 -0.018065
0.011975 -0.013998 -0.017407
-0.032703 0.003126 0.009026
0.030489 0.013286 0.009282
0.035803 0.013489 0.009982
-0.000155 -0.026312 0.008634
-0.039383 0.014140 0.010013
-0.003655 0.000552 0.008299
0.033393 -0.012193 0.009135
0.016110 0.027833 0.008853
-0.029499 -0.007357 0.008963
0.008469 0.037999 -0.020719
0.016951 0.005533 -0.017406
-0.033033 -0.013131 0.008985
-0.016767 -0.021614 -0.018038
-0.027179 0.020127 0.009313
0.023674 0.033633 -0.019105
-0.036649 -0.019056 -0.019221
-0.029600 0.030305 0.010606
-0.020577 0.009103 -0.017854
0.038965 -0.003207 -0.020810
0.001805 -0.030669 0.008996
-0.041895 0.002989 -0.012903
-0.012336 -0.005526 0.008385
0.001600 -0.011976 0.008405
0.000553 0.019669 0.008567
0.003379 0.002506 0.008367
0.022897 0.030008 -0.020683
0.009761 -0.036728 0.009822
-0.027689 0.010640 0.009042
-0.014406 0.004895 0.008465
0.008342 -0.021600 0.008617
-0.026286 -0.032844 -0.014999
0.024300 0.034225 -0.006686
0.005969 -0.001899 0.008347
0.023193 0.008982 0.008667
-0.002788 -0.041632 -0.017616
0.023092 -0.015291 0.008729
-0.036391 -0.013513 -0.020663
0.011520 0.039325 0.010785
0.029944 -0.009504 0.008855
-0.027211 0.009547 0.008955
0.012229 -0.002112 0.008434
0.028833 0.012028 0.008840
-0.006162 0.031195 -0.018279
-0.002289 -0.021146 -0.017409
0.028963 0.005359 -0.018894
0.022281 -0.003766 -0.017930
-0.028071 0.015747 -0.018132
0.001653 -0.033528 -0.017848
-0.004974 0.041163 -0.017388
0.037048 -0.018436 0.010822
0.014860 -0.014201 0.008562
0.031959 0.018350 0.009163
0.036568 0.018303 -0.019713
0.017651 0.028831 0.009493
0.009805 0.040626 -0.002250
0.042580 0.004147 0.010755
-0.028612 0.019732 0.009289
0.014814 -0.025118 0.009019
-0.004355 -0.029967 0.009090
0.002035 -0.017305 0.008480
0.009138 0.022490 0.008661
-0.005919 -0.009690 -0.016710
0.030911 -0.004098 0.008841
-0.002655 -0.012655 -0.016699
0.020124 0.006887 0.008618
-0.011828 0.022953 0.008627
0.008158 0.025698 0.008626
0.039922 0.009401 0.010468
0.011169 0.040290 0.005337
-0.009442 0.035968 0.009429
-0.000148 -0.027848 0.008704
-0.016144 0.038589 -0.000799
0.017807 -0.024506 0.009076
-0.008179 -0.013840 -0.017028
-0.006974 0.022544 0.008601
0.007898 -0.007045 0.008406
0.011348 0.026673 0.009132
0.022716 -0.025882 -0.018440
-0.032010 -0.000301 0.008792
0.009035 -0.030412 0.008698
0.011744 -0.017234 0.008563
0.004310 0.012706 -0.016806
-0.012329 0.019658 0.008595
-0.007550 0.019456 0.008572
-0.017353 -0.037625 0.011515
0.003433 0.026094 -0.018143
0.022137 0.006981 -0.017955
0.013976 -0.004489 -0.016943
0.020299 0.016832 -0.018046
-0.019712 0.034387 0.009639
0.022393 0.030720 -0.020728
0.002578 0.018353 0.008527
-0.002645 0.029068 0.009110
-0.016403 -0.004789 -0.017324
0.013991 -0.006481 0.008491
-0.012593 0.020209 -0.017976
0.011388 0.028478 0.008975
0.019216 0.020248 0.008783
0.005901 -0.027891 0.008867
-0.041597 -0.000716 -0.017677
