-0.050263 -0.027618 0.012305
-0.046358 0.041553 0.003646
-0.046477 -0.033195 -0.009235
-0.013831 -0.002735 -0.017214
-0.053742 0.026246 0.009553
-0.035164 0.021999 0.009492
0.033951 -0.021021 -0.012638
0.052719 -0.042157 -0.010899
-0.044069 -0.048490 -0.001937
-0.049965 -0.045235 0.008317
-0.042984 -0.032432 0.009466
0.030592 0.059076 0.005548
-0.102328 -0.015662 0.007201
-0.013172 -0.006894 -0.010028
-0.048260 -0.022039 0.009978
0.005344 0.003988 -0.006238
-0.004027 0.036583 -0.003629
-0.005797 0.023100 0.009513
-0.045968 -0.041759 0.012126
-0.042376 -0.037832 0.012215
0.072600 0.072039 0.011148
0.039676 -0.041533 0.010105
0.003617 -0.010439 -0.010231
0.006211 -0.027518 0.011751
-0.062287 -0.021356 -0.011433
0.031635 0.042371 -0.009481
0.035746 0.046827 -0.007938
-0.015570 0.008318 0.016099
0.000561 0.007066 -0.018039
-0.017919 0.034793 0.011557
-0.076600 0.019499 0.001790
-0.054633 0.011226 -0.011997
-0.014826 -0.012033 0.009487
0.082734 -0.066273 -0.005490
-0.030560 -0.048541 -0.006915
-0.069431 -0.035902 0.007931
-0.019057 0.025156 0.009695
-0.031666 -0.022748 -0.009688
-0.036984 -0.026261 0.011975
-0.015263 -0.000236 0.009516
-0.071727 -0.000746 0.010029
0.056471 -0.047340 0.010871
-0.059534 -0.040584 -0.004655
0.099144 -0.069547 0.000277
0.016735 -0.021991 -0.009192
0.074213 0.092382 0.000517
0.054788 -0.043471 0.008579
0.000117 0.010064 0.016643
0.091606 -0.058111 -0.011066
0.003973 -0.002076 0.007532
-0.010492 -0.025641 -0.009884
-0.029183 -0.049535 0.003660
0.079538 0.088753 0.004340
-0.010448 -0.006173 0.009164
-0.087806 -0.007086 -0.000313
0.076245 0.079489 0.013433
0.020757 0.051517 0.002946
0.065974 -0.043382 -0.010907
-0.007157 -0.002638 0.017866
-0.014865 -0.001328 0.011410
-0.103768 -0.010867 -0.001863
-0.092131 -0.010269 -0.013489
-0.005377 0.036136 0.004949
0.087834 -0.063614 -0.010495
0.060650 -0.056209 0.006694
0.083846 -0.070309 -0.001142
-0.017180 0.040334 0.003431
-0.004261 -0.003648 0.017829
0.077742 -0.065350 -0.008284
0.031282 0.059974 0.004407
-0.032861 0.026511 -0.009282
-0.024092 -0.040259 -0.012508
-0.077270 0.012253 0.012014
0.027839 0.032794 -0.009907
0.000034 -0.018627 -0.010139
-0.080775 -0.025738 0.013060
-0.094745 -0.010316 0.012664
-0.075405 -0.032111 0.007007
-0.015619 -0.007987 0.012665
0.014385 0.015476 0.010294
-0.023527 -0.036746 -0.009606
0.057569 0.072871 -0.007995
-0.062695 0.015381 0.011939
-0.051210 0.009866 0.010213
0.003027 -0.009346 0.008488
-0.094325 -0.021847 -0.010847
0.062091 0.082486 0.010157
-0.008918 0.006707 0.017429
0.066724 0.066943 0.012913
-0.002730 -0.036617 -0.007279
0.064953 -0.052109 0.010600
-0.045838 -0.027905 0.012175
-0.036678 0.015612 -0.010431
0.045391 -0.035092 0.004553
0.099925 -0.062818 -0.008150
0.020703 0.039512 0.009872
0.031944 0.039811 0.010008
0.073471 -0.048084 0.008629
0.026229 0.046893 0.008083
0.045912 0.064983 0.002953
-0.024667 0.015036 -0.012381
-0.060876 0.011229 0.009036
0.016587 -0.025232 -0.008495
0.036644 -0.022489 -0.012563
0.072638 -0.053196 0.011077
0.051438 0.077594 0.004232
-0.061591 0.007349 0.008924
-0.059201 0.034368 0.002225
-0.019799 -0.046468 0.006412
0.015355 -0.010626 -0.010393
0.091098 -0.055563 0.008641
-0.095534 -0.013243 0.014397
-0.040369 -0.049048 0.004970
0.029085 0.042754 -0.009444
-0.016619 0.007561 0.014958
0.045963 -0.046537 -0.010934
0.056742 0.061534 -0.011694
-0.050939 0.037919 0.008507
-0.004624 0.010709 0.016297
0.002254 -0.037329 0.000066
0.038005 0.039510 -0.011032
-0.042329 0.041075 0.006314
0.095538 -0.066796 -0.007648
-0.014637 -0.019917 -0.009884
-0.020517 -0.045689 0.008907
-0.009368 0.023468 0.012287
0.033184 0.043124 0.012693
-0.058411 0.031598 0.011088
-0.069660 -0.035523 0.009589
-0.075744 -0.001006 0.008701
-0.048540 0.039825 -0.002604
0.067434 -0.041175 -0.013299
0.056473 0.062074 -0.009005
-0.068549 0.023474 -0.011338
-0.067035 0.020164 0.009505
0.085445 -0.066467 0.004738
0.028984 0.032077 -0.012302
-0.077667 0.004892 -0.012825
-0.052715 -0.042345 0.011014
0.038212 0.053394 -0.011631
0.057391 0.058637 -0.010689
0.032755 -0.025028 -0.012989
0.011420 -0.018636 -0.012835
-0.059657 0.006786 -0.010482
0.054162 -0.033008 -0.012887
0.075312 0.078598 0.010802
-0.062811 0.012643 -0.012337
0.046191 0.047702 0.012624
0.079213 -0.056408 -0.011078
-0.050533 0.011357 -0.011448
-0.013525 -0.007903 -0.017886
0.064394 -0.044631 -0.013415
-0.057464 0.012675 -0.009886
0.036371 0.045909 -0.002680
0.056930 0.077030 0.010837
0.029852 -0.037252 -0.008638
-0.049020 -0.037242 0.009675
0.021919 -0.034382 -0.007153
0.021454 0.032517 0.009799
0.083388 -0.059798 0.010779
-0.069211 -0.032252 -0.007000
-0.048929 0.023865 0.009466
0.046465 -0.038282 0.002400
-0.004790 -0.009261 -0.017445
0.059765 0.062657 0.012961
0.006114 -0.000990 0.015818
-0.044017 0.042097 -0.003549
0.058540 -0.044896 -0.010944
0.005320 -0.010039 -0.017318
0.037882 -0.039817 -0.009471
0.074246 0.073443 0.012372
-0.078542 0.000405 0.008605
0.098504 -0.064403 -0.008008
-0.071907 -0.029331 0.012814
0.059208 -0.036945 -0.013232
-0.056544 0.035658 -0.003701
0.018301 0.027955 -0.009874
-0.082017 -0.014692 0.010490
0.095640 -0.066776 0.004094
-0.023392 0.023306 0.012290
-0.066223 0.004773 -0.012461
0.024842 0.039565 0.010116
0.061923 -0.054139 0.009037
0.055247 -0.056045 -0.000179
0.086431 -0.068675 0.006702
-0.004620 -0.016510 0.012827
0.036844 -0.026481 -0.010502
0.016965 -0.021848 0.009115
-0.010594 -0.035456 0.011786
0.033976 -0.020441 -0.012026
0.000548 0.036708 -0.004425
-0.013003 0.004842 -0.012374
0.067002 0.081446 -0.007681
0.055982 -0.038246 0.008706
0.085086 -0.067763 -0.009928
-0.028674 -0.027060 -0.009630
-0.006338 0.036165 -0.005308
0.023390 -0.039066 -0.006059
-0.077898 -0.011998 -0.008953
0.067666 0.069314 0.010484
-0.057716 0.013869 0.009138
-0.015707 0.012083 0.012164
-0.049242 -0.033590 -0.011998
-0.006616 0.023866 0.009210
-0.103733 -0.011733 0.012491
-0.097904 -0.007064 0.011255
0.077127 -0.046317 -0.011355
0.075225 0.075817 -0.009785
0.065617 0.065189 0.012155
0.011090 -0.032676 -0.008695
-0.069189 0.022028 0.011653
0.055331 -0.053994 0.005935
0.024797 0.044333 0.005782
-0.006091 -0.036030 -0.011245
-0.073987 -0.001539 0.010807
-0.065556 -0.029867 0.002022
-0.046893 0.013501 -0.011205
-0.005379 -0.014596 0.009452
0.028511 -0.026667 -0.010436
0.055234 -0.034529 -0.010531
-0.046773 0.014849 -0.010157
-0.007725 -0.031820 -0.012694
-0.061886 0.006657 -0.012233
-0.005212 0.036748 -0.003431
-0.029755 0.018363 -0.012258
0.004956 0.013327 0.009318
0.022437 -0.033823 -0.008317
0.026546 0.050926 0.010364
-0.057719 0.006511 0.010265
0.051791 -0.031442 -0.010643
0.039718 0.056879 -0.011226
-0.014297 -0.006778 -0.016825
0.047641 0.071569 0.008667
-0.016566 -0.045509 -0.007093
-0.041728 0.039455 -0.010261
-0.015959 0.040522 0.000004
0.021461 -0.020524 0.011797
-0.031736 0.033155 0.009371
-0.085748 -0.011981 0.003029
-0.051164 0.026352 -0.009198
0.001376 -0.007105 0.008448
-0.014758 0.007443 -0.018110
-0.011965 -0.006052 -0.016226
0.055182 0.065117 -0.008708
0.084328 -0.050478 -0.011666
0.105089 -0.063443 -0.001196
-0.097968 -0.008230 -0.014000
0.049996 0.050504 0.010290
0.004394 -0.014472 0.012238
-0.024056 -0.050279 -0.000847
0.019693 0.047119 -0.008154
-0.048855 0.024176 0.009479
0.026200 -0.016290 0.010036
-0.026016 0.034815 -0.009174
-0.065076 0.018644 0.009483
0.075104 0.077275 0.010764
-0.016543 -0.033670 0.000862
0.052917 0.061948 -0.000330
0.036507 0.038780 -0.012064
0.068851 -0.042595 0.011324
-0.000008 0.001863 0.017537
0.055218 0.063579 -0.005926
0.086605 -0.060972 0.008215
0.021362 0.029509 -0.001764
-0.028724 -0.022057 -0.009582
0.048478 0.058064 -0.001574
-0.004207 0.035189 0.006336
-0.086027 -0.012136 0.011625
0.076755 -0.062331 -0.004081
-0.005786 -0.034825 -0.011959
0.074364 -0.047394 -0.010803
0.078434 -0.065356 -0.008636
0.052865 0.063051 0.001511
-0.039763 -0.044385 -0.008802
0.050162 0.063636 0.010429
0.043580 0.067341 -0.007736
0.045304 -0.042216 -0.010208
0.014231 0.045975 -0.002523
-0.026739 0.041934 0.005896
-0.032159 0.018848 0.012071
-0.056950 -0.023523 0.009928
-0.012575 0.004601 -0.010551
0.051767 0.078082 0.002659
0.011149 0.041298 -0.006954
-0.026249 -0.047254 -0.009493
0.006088 -0.014208 -0.012697
0.070101 -0.047153 -0.013491
0.008637 -0.015891 -0.012740
-0.015514 -0.007088 0.016303
0.083328 -0.067758 0.005995
-0.079458 0.016900 0.001095
0.005580 -0.002612 0.010698
-0.044003 0.013650 0.009389
0.075160 -0.063927 0.005556
-0.035390 0.033305 0.008711
0.024784 -0.026139 0.011680
0.005034 0.003055 -0.003773
-0.008326 0.004337 -0.015759
0.047898 0.053141 -0.011795
-0.031321 -0.025050 0.009488
-0.062888 0.015064 0.011937
-0.012781 0.006053 -0.018062
-0.103420 -0.013098 -0.011213
0.034384 0.053866 -0.011041
0.052796 -0.033080 0.011394
-0.055025 0.033258 0.011612
0.038868 0.067177 0.001273
0.087438 -0.058917 -0.011023
0.013712 0.016336 -0.010618
0.043665 -0.027152 -0.010474
0.070064 -0.057381 -0.011923
0.040851 0.041839 0.010045
-0.023400 -0.048424 0.006163
-0.046418 -0.027360 -0.009337
-0.010322 0.037983 0.003704
0.041525 -0.027092 -0.013103
-0.027041 0.038139 0.011176
-0.054277 -0.022626 -0.011542
-0.016266 -0.011512 0.012317
-0.099187 -0.017668 -0.010860
-0.034331 0.032823 0.006909
0.045896 -0.040993 0.008429
-0.042052 -0.040918 0.012162
-0.036848 -0.040829 -0.006362
-0.074470 0.010475 -0.000182
0.058240 0.067487 -0.008507
0.003448 0.010760 -0.010346
-0.052022 -0.028789 0.012369
-0.035161 0.025643 -0.009308
-0.012096 0.005345 0.016965
-0.072329 -0.016674 0.010337
-0.002867 -0.033049 -0.006659
0.062920 0.074024 -0.000694
0.025710 0.046687 0.011978
-0.006403 0.036292 0.005058
0.036305 0.064307 -0.003475
0.025886 0.029013 0.012218
0.014264 -0.028903 -0.012104
-0.003012 -0.029288 -0.010074
0.035446 0.060056 0.009519
0.020234 -0.024746 -0.013023
0.025382 0.036669 0.012544
0.033405 0.045913 -0.003741
-0.065738 -0.030553 0.010113
0.073792 0.087883 -0.005637
-0.074631 -0.017860 -0.011409
0.041202 0.059831 0.009374
-0.008253 0.024284 0.012270
0.053426 -0.032712 -0.012863
0.050250 0.076649 0.003217
-0.007594 0.032803 0.010447
0.005781 -0.000576 -0.007088
0.014152 0.024958 -0.001391
-0.091605 0.004964 -0.001001
0.061789 -0.038461 0.011333
-0.010161 -0.036721 -0.012250
0.013522 -0.023033 -0.004490
0.057606 -0.038873 -0.013284
0.020767 0.034923 -0.000427
-0.048455 0.035649 -0.007781
0.067643 0.081112 0.010353
0.054989 0.065882 -0.001632
-0.018257 -0.022944 0.009555
-0.061787 -0.017052 -0.009250
-0.101779 -0.006145 -0.013761
-0.032173 -0.030056 -0.009610
0.060796 0.068418 -0.008954
-0.096447 0.000567 0.008098
0.065784 0.085471 -0.004620
-0.000430 -0.001631 -0.016284
0.019602 -0.015193 0.009094
-0.067588 0.012792 -0.012467
-0.016612 0.004448 0.017208
-0.089954 0.005772 0.010932
-0.017039 0.005037 -0.011251
-0.009761 0.001703 0.003945
0.033561 -0.020124 -0.011676
0.048103 -0.031370 0.011633
0.064919 -0.040837 -0.010866
-0.053214 0.037258 0.007245
0.012482 -0.011574 0.009077
0.038673 -0.034202 0.008816
-0.008834 0.004597 0.007544
-0.069914 -0.019930 -0.008773
-0.038897 -0.047643 -0.009558
0.011227 0.025407 0.009788
-0.050280 -0.044161 -0.009785
-0.044585 0.034678 0.012757
-0.046654 0.014476 -0.010361
-0.003886 -0.025560 0.011957
-0.040234 0.015024 0.009132
-0.060372 -0.037368 -0.007261
0.085774 0.085854 -0.001295
0.013200 0.014938 0.010735
0.076767 -0.060003 0.009823
-0.051702 0.038994 0.004202
-0.006283 0.019907 -0.009938
0.021222 0.030004 -0.001064
-0.075779 -0.027111 0.007712
0.000575 0.006882 0.017106
0.056608 0.056296 0.011257
0.014986 -0.030461 -0.011424
0.086674 -0.069618 0.005303
-0.039134 0.015727 0.011320
0.005333 -0.023031 0.011917
-0.041321 -0.049157 -0.003720
-0.076633 -0.004388 0.010017
-0.007795 0.026033 -0.009700
0.047653 -0.029418 0.011132
0.020233 0.037537 -0.009417
0.019734 -0.020818 -0.010507
-0.026935 -0.029836 -0.012285
-0.003041 0.031178 -0.011536
0.000146 0.008418 0.017058
-0.065231 -0.029636 -0.011761
0.045911 0.052187 0.012868
0.058758 0.061724 -0.009118
0.050927 -0.047274 0.009966
-0.057360 0.018511 0.009473
-0.090737 -0.007015 -0.013074
0.076716 0.088291 -0.008590
0.003830 0.034290 0.009494
-0.041734 0.040352 -0.009010
-0.022442 -0.043745 0.011318
-0.048557 0.016488 -0.009451
-0.009009 -0.011454 -0.018029
0.050655 0.076472 0.005002
0.082303 -0.069630 -0.002975
0.054943 0.063135 -0.005843
-0.091197 0.006126 -0.005261
-0.095493 0.001472 0.007913
0.063431 -0.060197 -0.001133
-0.014184 -0.006879 -0.017039
-0.015653 0.015313 0.009549
0.074396 -0.054494 -0.001396
-0.046431 0.027303 -0.009183
-0.069081 0.000388 -0.011487
0.056799 -0.040707 0.001413
0.025808 0.034493 0.012447
-0.027097 -0.031903 0.009484
-0.033441 -0.024938 -0.011795
-0.094098 -0.022257 -0.004477
-0.032393 -0.039646 0.012048
-0.013674 -0.003688 0.010011
-0.070969 0.003594 0.011453
-0.094679 -0.021065 0.005669
0.037153 0.043072 -0.009079
-0.006834 0.006125 0.005281
0.087177 -0.063345 0.007524
0.024729 0.033781 -0.012352
0.023803 -0.026628 0.011708
0.038130 0.038332 0.011285
-0.058949 -0.041156 -0.005765
-0.059118 0.021802 0.012236
-0.067484 0.026944 -0.007700
0.032685 -0.036190 -0.009858
0.101464 -0.062350 0.004409
0.051836 0.058154 -0.009256
-0.041380 -0.024083 -0.009418
-0.006973 -0.030476 0.011915
0.004161 -0.003018 0.017201
-0.037486 0.036255 -0.011579
0.044906 0.065007 -0.005525
-0.099095 -0.006193 -0.013123
-0.005963 -0.017182 0.009075
-0.034717 -0.045395 0.011664
0.056078 0.058203 0.012884
-0.081656 -0.000166 -0.010303
-0.049418 -0.021785 -0.010191
0.035239 -0.029232 -0.000578
-0.025724 0.035659 0.012432
-0.005208 0.034267 0.008003
0.028823 0.045561 -0.004773
0.064508 -0.040042 0.008918
0.044626 0.053753 -0.001737
-0.074639 -0.012817 -0.010074
-0.022795 -0.019189 -0.011635
0.004170 -0.027324 -0.009794
-0.056274 0.008595 0.011050
-0.093867 -0.008217 0.011686
0.068088 0.090230 0.006099
-0.082719 0.009248 -0.008385
0.034461 -0.028375 0.009082
-0.037027 -0.049523 -0.003595
0.051851 -0.037188 0.011425
-0.000182 0.016019 -0.013405
0.007535 0.039287 0.005482
0.022248 0.040889 -0.011807
0.072826 -0.045002 0.011201
-0.088020 -0.016226 0.012317
0.047105 -0.041867 0.011149
0.086155 0.085874 -0.000719
-0.077375 -0.003884 0.009123
-0.000200 0.016775 -0.009750
0.003420 -0.010243 -0.010232
-0.047754 -0.028688 0.012247
0.088168 -0.061804 -0.011362
-0.059805 -0.019582 -0.011283
-0.063709 -0.034694 0.010104
-0.018749 0.007077 0.011512
0.026381 -0.019598 -0.012879
0.028617 -0.037397 -0.006973
-0.053351 0.011801 0.011457
-0.056697 0.030347 -0.009001
-0.014598 0.019432 0.009557
-0.101242 -0.016344 -0.011908
0.063132 0.074860 0.001945
-0.015904 0.003183 0.013149
0.017225 -0.022283 -0.001682
-0.074175 -0.023895 0.013015
0.087688 -0.068259 0.007438
0.054915 0.071882 0.012363
-0.021704 0.037873 0.008984
-0.011842 -0.011121 0.017253
-0.009909 0.016196 0.009450
-0.008425 0.004427 0.017296
-0.075805 -0.003566 -0.011818
0.012030 0.024861 0.012161
-0.049044 -0.044795 0.009880
-0.076093 -0.031844 0.006983
0.023397 -0.017398 0.011662
0.028122 0.046645 0.012520
-0.010882 -0.010454 -0.010145
0.075167 0.087372 0.008670
-0.000555 -0.031551 0.011353
-0.037613 0.020757 -0.009438
0.065842 -0.039493 -0.012410
-0.048764 0.025630 -0.011990
0.057723 -0.041337 0.008807
-0.045084 0.023321 -0.012003
0.038385 0.038559 0.011279
0.041953 -0.025238 -0.011393
0.045803 0.045761 0.011262
0.083324 -0.050585 0.010527
-0.071923 -0.034164 -0.008754
0.018279 -0.025656 -0.010475
0.063959 0.068279 -0.011527
-0.039315 -0.023415 -0.009427
-0.087519 -0.002359 -0.012251
0.057941 -0.049422 -0.009997
0.053036 0.052539 0.011608
-0.008627 -0.041836 -0.005859
0.079545 0.079873 0.010613
-0.052478 -0.021182 0.011961
-0.003148 -0.010799 0.007595
0.046224 -0.032808 0.006877
0.067628 -0.040434 -0.012736
0.056436 -0.040681 -0.000754
0.001956 -0.022667 -0.010007
0.005264 -0.000281 -0.009010
-0.011571 -0.038776 0.010933
-0.057540 0.011634 0.011649
0.061433 0.067945 0.013225
-0.021977 -0.021037 0.009480
0.018562 0.024101 -0.010059
0.060632 0.085709 0.002100
-0.044401 0.022357 0.009657
-0.048466 0.037600 -0.010315
0.082475 -0.068207 -0.007409
0.004808 0.011767 0.014164
-0.001457 0.016971 -0.012761
0.022818 0.024683 -0.011196
-0.023600 -0.048882 -0.004655
-0.037629 -0.028241 0.012141
0.061934 0.080854 0.011105
-0.018443 -0.046714 0.006283
0.000175 -0.036257 0.005948
0.068317 0.086822 -0.004407
0.061705 -0.050340 -0.013011
-0.094139 -0.011577 0.014024
-0.014587 -0.042837 -0.009271
0.042406 0.044651 -0.011801
-0.002387 -0.037555 0.004758
0.083416 -0.069703 0.001688
-0.100463 -0.017233 -0.005708
0.056058 -0.034890 0.011185
0.019963 -0.012550 -0.011188
-0.090165 0.000835 -0.013037
-0.068422 0.000698 -0.011475
-0.057607 -0.029293 0.012611
0.085372 0.087440 -0.005032
0.094362 -0.071068 -0.000826
-0.016474 -0.019710 -0.012511
0.094224 -0.055810 -0.012534
0.020375 -0.036155 -0.008364
0.057744 -0.035174 -0.010830
-0.086354 -0.010354 -0.008894
0.037650 0.056530 0.009483
0.007680 0.012012 0.011743
0.012825 0.043253 -0.006017
-0.000813 0.012408 0.017126
-0.099923 -0.018043 0.008435
-0.017023 0.006215 -0.010252
0.077240 -0.059548 0.010111
-0.098627 -0.018280 -0.006227
0.037528 0.041551 -0.009718
-0.017330 0.006309 0.009316
0.080413 0.087686 -0.003867
-0.040973 -0.026666 0.012106
-0.007959 0.000696 -0.016272
0.022016 -0.028371 0.011581
0.027847 -0.018683 0.009120
-0.031370 0.021043 -0.009602
-0.051356 -0.024191 0.012295
0.078199 -0.049641 -0.013579
0.015387 -0.017072 0.003834
0.023546 -0.029738 -0.012898
0.001098 0.005619 -0.017989
-0.010230 0.006238 -0.009631
-0.001825 0.003596 -0.016364
-0.046825 -0.028053 0.009673
-0.001737 -0.037101 0.005684
-0.011752 -0.010712 0.017447
0.042015 0.050411 0.000277
-0.014030 -0.002944 -0.013566
0.053926 0.076954 -0.006903
-0.046020 0.015425 -0.011104
-0.086091 -0.010979 0.002299
-0.078902 -0.004820 -0.012233
0.072977 0.088359 -0.008499
0.034189 0.044338 -0.012050
0.086953 -0.071002 -0.003885
0.071268 -0.059715 -0.007564
-0.054734 0.036242 -0.005155
-0.093117 -0.022705 -0.008034
-0.003367 0.018670 0.012052
0.056038 -0.034144 0.010149
0.005639 -0.001240 0.000552
0.038268 0.039359 0.010001
-0.019927 0.010484 0.009382
-0.093085 -0.016760 -0.011318
0.042966 -0.029731 0.009070
-0.053855 -0.024664 -0.011637
0.043579 0.061220 0.001982
-0.091513 0.004153 -0.005021
0.017433 -0.016979 -0.010467
0.024429 0.052468 -0.006567
0.014791 0.025540 -0.001232
0.015967 -0.031171 0.009957
0.063698 0.085006 -0.000513
0.006179 0.000182 0.000855
0.022120 -0.034408 -0.010804
0.053868 -0.046572 -0.010195
-0.065017 -0.021255 0.010100
-0.099646 -0.017995 0.005740
-0.029288 0.042837 0.004996
0.074500 -0.045969 0.011142
0.094828 -0.064492 0.009962
-0.068067 0.015383 0.009370
-0.096790 -0.002318 0.011565
-0.019300 0.032224 -0.011922
-0.061932 -0.036420 -0.008477
-0.101437 -0.004445 -0.010706
-0.000986 0.002107 -0.016780
-0.089040 -0.006766 -0.012313
0.052543 0.053779 0.010221
-0.088787 0.005092 0.011763
-0.001525 -0.008914 -0.016955
0.017923 -0.033085 0.008961
-0.036595 0.015202 0.009275
-0.039533 0.033310 0.012618
-0.028358 0.021827 0.012173
0.023177 0.049364 -0.008679
0.031822 0.033499 -0.010219
-0.058092 0.034745 0.004907
-0.090353 -0.011688 0.014311
0.051018 -0.050320 -0.010074
0.055787 -0.048360 -0.009922
-0.027640 -0.039991 -0.008189
-0.084921 -0.000999 0.001131
-0.035653 -0.023552 -0.011660
-0.042664 0.019711 -0.009469
-0.008042 -0.002461 -0.016732
-0.049012 0.030464 -0.009088
0.056555 0.064410 0.010520
-0.021688 0.011676 -0.011075
0.019227 0.034704 -0.009662
-0.046191 -0.023243 -0.009363
0.052801 0.062059 0.013144
0.007895 -0.006595 0.013465
0.069973 0.084243 -0.010122
0.067534 0.085996 -0.005349
-0.043561 0.013808 0.010836
-0.062464 -0.040034 0.002241
-0.098384 -0.000681 -0.006943
-0.006405 -0.015018 0.014894
-0.027191 -0.021215 -0.011761
0.093216 -0.055359 -0.012741
-0.008635 0.005188 0.017360
-0.044213 0.030833 0.009706
-0.042428 0.032295 0.007252
0.060690 0.085798 -0.000366
0.059412 0.066103 0.010574
-0.073420 -0.013928 -0.009656
0.059057 -0.038071 0.011445
0.052819 -0.042962 -0.010748
-0.012617 0.006302 -0.018065
-0.023693 -0.019726 0.011587
0.006245 -0.028744 0.011449
-0.017087 0.036512 0.009601
-0.005949 0.013253 0.016769
-0.017109 0.004632 -0.012809
0.070791 -0.044793 -0.011017
-0.019792 0.035432 0.011439
-0.067654 -0.022062 0.012787
-0.011975 -0.026393 -0.012636
0.014869 0.033424 0.001365
0.059433 0.077815 -0.006430
-0.010932 0.001826 0.009342
0.070499 -0.050887 -0.010809
-0.047863 0.035019 -0.011541
-0.065198 0.003416 0.008705
0.026083 0.040161 0.012709
-0.102454 -0.010875 -0.014060
0.073439 -0.044564 -0.010935
0.017622 0.031982 -0.009635
-0.043793 -0.044752 0.011584
-0.007083 -0.012679 -0.018074
0.025046 -0.016026 0.011053
0.024391 0.038842 0.000424
-0.018168 -0.046928 -0.005936
-0.060532 -0.040876 -0.002892
-0.011296 -0.042930 0.004570
-0.016387 0.003286 0.013051
-0.009239 -0.021473 -0.012643
-0.072720 0.007427 -0.012644
-0.020683 -0.047761 0.003814
0.031668 0.047555 0.001967
0.030900 -0.042594 0.004914
0.080973 0.091559 0.003060
0.062525 0.066693 -0.009047
-0.073149 0.022668 -0.003190
-0.001207 0.037132 0.002184
-0.023871 0.013718 -0.010395
0.035833 0.050963 -0.009165
-0.007179 -0.028615 -0.012737
0.047780 0.049459 -0.009977
0.085344 0.085693 0.001450
0.021867 -0.027463 0.008585
-0.018954 0.025440 -0.012252
0.038105 0.039758 -0.010202
-0.020198 -0.045632 -0.008826
-0.046990 -0.028212 -0.009279
-0.055867 0.035076 0.008442
0.089334 -0.063457 0.007830
0.053211 -0.034389 -0.010533
0.057887 0.083019 0.003468
0.087643 -0.065146 -0.009534
0.066081 0.081886 -0.007217
-0.067630 0.008747 0.009102
-0.001244 -0.037154 -0.006309
0.080463 -0.051113 -0.013503
-0.029315 0.038520 0.011250
-0.065872 0.010545 -0.009292
-0.037096 0.019835 -0.009610
0.025699 0.027385 0.011890
-0.012649 -0.010181 -0.018018
-0.046243 0.036336 -0.011383
-0.038452 -0.024547 -0.011652
0.080296 -0.068510 -0.003099
0.007177 -0.013704 0.011823
0.085136 0.087943 0.006998
0.063598 0.063459 0.012515
-0.066632 -0.028028 0.012801
0.062926 0.068362 -0.008999
0.005076 -0.027150 0.011798
-0.050613 0.038140 -0.008307
0.002455 -0.016801 0.011865
0.054803 -0.044751 -0.010706
0.062296 -0.052457 -0.005393
-0.006156 -0.027539 -0.012762
0.066283 0.067352 -0.009710
0.050864 -0.047047 -0.012130
0.059976 -0.040156 0.008835
0.005309 -0.025434 -0.012864
-0.008101 0.003485 -0.015420
-0.027888 0.042664 0.004883
0.078602 -0.056449 0.010954
-0.089937 0.007260 0.001279
0.090049 -0.059148 0.008338
-0.008203 0.037704 0.002978
0.046873 -0.032265 0.008856
-0.078304 -0.013412 0.012938
0.074919 -0.048811 -0.013564
0.061290 0.078864 -0.006822
0.003074 -0.011921 0.004743
0.070591 0.086428 0.011815
0.068770 0.071062 0.010657
-0.020814 -0.047472 -0.005276
-0.005715 -0.013252 -0.010096
-0.053653 -0.022242 0.012161
-0.063774 0.030610 0.001424
0.070031 -0.050077 0.011204
0.069996 -0.063149 0.002138
0.037915 -0.036349 -0.010401
0.016848 -0.020330 0.001224
0.024447 -0.039925 0.003716
-0.083522 0.013436 -0.002948
0.034909 0.051235 -0.005172
0.019100 0.050422 0.000750
-0.051515 -0.042084 0.011579
-0.102038 -0.005073 -0.005012
0.004271 -0.017601 0.011895
-0.066561 -0.024591 -0.011617
0.034627 -0.030033 -0.010623
-0.005814 -0.010371 -0.016118
-0.035240 0.028888 0.009853
-0.091086 0.003439 0.001234
-0.045115 0.019755 -0.012092
0.044086 -0.039131 -0.008561
0.003065 0.011758 0.015960
0.071251 0.089031 -0.002176
0.051237 -0.035763 0.011454
0.028103 -0.025508 -0.000127
-0.083425 0.009033 -0.008122
0.005621 0.000984 -0.015507
0.058741 0.078829 0.010699
-0.014688 0.038450 -0.003642
0.020923 0.034892 -0.009580
-0.093481 -0.022747 0.008084
0.081456 -0.059894 0.010655
-0.067673 0.024159 0.011026
0.086216 -0.054029 -0.010930
-0.031608 -0.024070 0.009445
0.053055 -0.045863 0.006718
-0.045372 -0.048193 0.000339
0.028250 -0.025911 -0.000203
0.028160 -0.031846 0.011485
0.090902 -0.067508 0.005223
0.047065 -0.028670 0.010155
0.105070 -0.063972 -0.000266
0.013638 -0.022961 -0.004050
0.063179 -0.059773 -0.003939
-0.009813 -0.044116 0.001869
-0.012690 -0.008735 -0.016947
0.076150 -0.056902 0.010711
-0.092238 -0.006775 -0.012204
-0.082997 0.007666 0.009065
0.050613 -0.050747 0.007117
0.086585 0.087290 -0.002398
-0.002014 -0.020644 -0.012789
-0.016191 0.022261 0.009589
0.076033 -0.058661 0.006411
0.011353 0.036366 -0.010776
0.046633 -0.044284 -0.012227
-0.076347 0.013619 0.012040
0.008638 0.019921 -0.012497
-0.102222 -0.005795 0.011729
-0.015846 -0.006900 -0.016148
-0.103594 -0.007810 0.002380
0.032207 0.045261 0.012835
-0.007676 -0.038840 0.008724
-0.028883 -0.045912 -0.011533
0.016102 0.046220 0.006251
-0.069761 0.017114 0.009400
0.095725 -0.063563 0.007382
0.020202 -0.019982 0.009275
0.055905 0.062778 -0.008094
-0.091582 0.005273 -0.012204
0.036474 -0.046663 -0.001750
0.025080 0.042957 -0.009098
0.082966 0.083771 0.011871
-0.011846 0.025849 -0.012302
-0.043130 -0.040315 -0.002552
0.053916 0.057849 -0.009331
-0.015828 0.039228 -0.003868
0.098584 -0.060324 -0.010062
0.034194 -0.041546 -0.010095
0.006574 -0.035265 -0.003824
0.020297 0.038596 -0.011955
0.049347 0.066497 0.002203
0.031455 -0.039790 0.008687
-0.012059 0.035656 -0.008161
0.050622 0.059221 0.000282
-0.005913 -0.039957 -0.005070
-0.095056 -0.014685 0.013573
0.049388 -0.040113 0.011424
-0.010269 0.008674 0.009384
-0.005103 0.003137 0.017783
0.045980 -0.046530 0.008947
0.080795 0.089114 0.009049
-0.030177 0.042502 0.005331
0.017315 0.047584 0.005483
-0.006226 0.024095 -0.012408
0.041606 0.044787 -0.009392
-0.033063 -0.042277 0.012021
0.046313 0.062072 -0.008623
-0.093498 -0.000181 -0.005254
0.010114 0.013964 0.011687
0.087128 0.087219 0.001476
-0.000762 -0.002243 -0.016594
0.091946 -0.061088 -0.011097
0.035487 -0.030064 -0.013070
0.068039 -0.045058 -0.009971
0.056927 -0.046899 0.011002
-0.041849 0.042445 -0.002271
-0.017477 0.005419 -0.013501
-0.010977 -0.043414 0.004222
0.085684 -0.059114 -0.013693
-0.004455 -0.009642 0.007557
0.056766 -0.043287 -0.010939
0.019079 0.036868 0.001324
-0.003182 0.011565 0.009387
0.068020 -0.045774 0.006510
0.066276 0.086487 -0.007591
0.020230 0.032980 0.009768
-0.095411 -0.021628 0.008458
-0.046461 0.034993 0.012674
-0.039830 -0.048200 0.007855
-0.074101 0.009973 -0.012613
-0.049034 0.040371 0.003057
-0.015144 0.035523 -0.010189
0.064262 0.064651 0.012835
0.076598 -0.066500 0.001135
-0.015548 -0.045783 0.005306
-0.048477 0.017648 -0.012114
0.029325 0.058355 -0.003482
-0.025737 0.018146 -0.009764
0.052770 0.070614 0.007258
-0.027267 0.040853 0.007908
-0.007870 -0.039996 -0.007975
-0.009933 0.000747 -0.003372
0.036530 -0.045517 0.004599
0.077719 -0.056610 -0.010952
-0.026599 -0.020931 -0.010034
-0.047048 0.041644 0.000063
-0.087203 -0.017774 -0.011447
-0.040315 -0.028832 0.012132
0.070486 0.087571 -0.008636
0.011521 -0.023092 -0.009591
-0.070123 0.005898 0.008951
0.054775 -0.041023 0.011323
0.038682 0.054496 -0.008967
-0.009529 0.035085 -0.008553
-0.038096 -0.049278 0.002962
-0.030617 -0.048056 -0.008911
-0.026232 0.036206 0.012302
0.061950 0.086754 0.002917
-0.009631 -0.010438 0.017648
-0.063919 0.013660 -0.009152
-0.042804 0.032043 0.009772
0.026613 -0.038326 -0.009445
0.050904 -0.052569 0.004749
0.103936 -0.062050 0.002576
-0.096062 0.001600 -0.011793
-0.074122 -0.016806 -0.008777
-0.036677 -0.040239 -0.008195
0.036355 -0.045540 -0.006278
-0.017363 0.028341 -0.012191
-0.056212 -0.043194 -0.001696
-0.079711 -0.005697 -0.011980
-0.056172 -0.021423 -0.009066
0.046985 -0.047400 -0.010689
0.058733 0.070057 0.002128
0.064098 0.069465 0.013249
-0.017073 0.005937 -0.010321
-0.028703 -0.021368 -0.010091
-0.051610 -0.024549 -0.009225
-0.066688 0.010118 0.011792
0.032798 -0.023757 -0.012978
-0.033724 0.025057 0.012262
-0.041191 0.041232 -0.005885
-0.032861 -0.045874 -0.011790
-0.032464 0.041980 0.005846
0.037627 0.038970 0.012384
0.029625 -0.023961 -0.010497
-0.027018 0.018155 -0.009795
0.023940 0.032115 -0.002528
-0.059687 0.032440 -0.009184
0.050729 0.055192 -0.009435
-0.067220 0.026671 0.006002
0.043466 -0.044354 -0.008037
-0.055523 0.031000 -0.011706
-0.090857 0.002930 -0.000662
-0.011491 -0.001565 0.009356
0.089082 -0.061313 -0.011468
-0.037662 0.017775 -0.009753
-0.017492 0.020686 0.012203
0.006831 -0.023475 -0.012835
0.097791 -0.058923 -0.013264
0.003048 -0.009619 0.008223
0.075726 -0.065446 -0.006025
-0.083646 0.004375 0.011737
0.073229 0.092388 -0.001462
0.066542 0.088799 0.007317
-0.071583 -0.035115 0.002924
0.019874 0.047476 0.008533
-0.005253 -0.028469 0.011920
-0.069386 0.012379 -0.007353
0.059135 -0.041531 -0.013395
-0.028127 -0.049887 0.003960
0.027537 0.043769 0.012721
0.033146 -0.021021 -0.012761
0.005187 0.009131 -0.012244
-0.014408 -0.044537 0.004876
-0.062680 0.018250 -0.009510
-0.069516 -0.000109 0.009567
0.035227 -0.026556 -0.010527
0.055316 0.059896 0.009369
-0.067721 0.003024 -0.010410
-0.022445 -0.031583 0.012012
-0.028426 0.032545 -0.011884
-0.084149 -0.024063 -0.011489
-0.011319 0.032045 0.011937
0.079283 -0.048635 -0.013488
-0.092134 0.004850 -0.005482
-0.032140 -0.023118 0.009999
0.079931 -0.056570 0.011033
0.032460 -0.027405 -0.000126
-0.066265 -0.037462 -0.007242
0.002510 0.026390 0.009122
-0.064604 0.010061 0.011637
0.014531 -0.035840 -0.003165
0.005098 0.022930 0.012170
-0.037686 -0.047019 -0.010678
0.074827 0.082131 0.010904
0.095685 -0.057725 0.009154
-0.058311 0.024475 0.009575
0.078726 -0.057048 -0.010957
-0.079570 0.016813 -0.006186
-0.047141 -0.030334 0.009654
-0.087831 0.005431 -0.012853
0.053436 -0.054696 -0.004673
0.012831 0.035410 0.008592
0.028547 0.052873 -0.009355
-0.022376 0.040502 0.004795
-0.065530 -0.017086 -0.009618
0.036105 -0.033983 -0.010642
0.014385 -0.010795 0.011540
-0.090255 -0.004240 -0.012297
0.004102 0.011462 -0.017288
-0.010957 -0.041030 -0.008578
0.031599 0.060931 0.000700
-0.015329 0.026672 -0.004008
-0.021456 0.038075 0.008408
-0.072014 -0.002158 0.009602
0.020376 -0.033357 -0.011036
-0.008434 0.016499 -0.013039
-0.008173 0.022913 -0.009675
-0.004708 0.015044 0.013872
0.057845 0.072248 -0.008173
-0.058161 0.008319 0.009063
-0.011938 -0.009483 -0.016407
0.010112 0.015462 0.009246
-0.089594 -0.004769 0.008483
-0.062282 0.030628 0.004967
0.062395 0.078296 0.009655
-0.054595 -0.024202 -0.011601
0.053359 -0.038089 -0.013314
-0.015876 -0.022723 -0.010111
-0.064274 -0.017735 0.010534
0.066270 0.088444 0.007639
0.096399 -0.064978 -0.008808
0.065140 0.069305 -0.009006
-0.020121 -0.048471 -0.003850
-0.017259 0.004143 0.012420
0.036209 -0.027685 -0.010527
0.081059 -0.051485 -0.011037
-0.054334 -0.020079 -0.010194
-0.062357 -0.018398 -0.010857
0.027761 -0.022272 -0.010358
0.045436 -0.037167 -0.013232
-0.093522 -0.001746 -0.013122
-0.002344 0.015725 0.009438
-0.101089 -0.004495 -0.007572
-0.087811 -0.025166 0.004537
0.083255 -0.070122 -0.003203
0.036555 0.064978 0.003080
0.062076 0.061772 0.011123
-0.088335 -0.025560 -0.005840
0.003948 -0.004694 -0.000505
-0.047790 -0.040300 0.009314
0.050531 -0.036808 -0.000068
-0.057983 0.035280 -0.000420
-0.072492 -0.015111 0.011953
-0.012603 0.024561 -0.012359
0.013806 -0.021372 0.008889
0.038325 -0.047627 0.001070
0.046626 0.073272 -0.002790
0.051125 -0.036268 0.011391
0.020694 -0.034446 0.008789
0.082936 -0.069657 -0.004173
-0.043442 0.040037 -0.009055
-0.046762 -0.024927 0.009710
0.017269 0.034265 0.009839
0.093980 -0.062869 0.007728
0.061528 0.063870 -0.009106
-0.092996 0.000626 0.011643
0.002276 0.003687 0.017202
0.072273 0.087851 0.011264
-0.044891 -0.038162 -0.008818
0.085727 -0.061358 0.010581
-0.041999 -0.049236 0.002281
0.095624 -0.057108 -0.013382
-0.021492 -0.042807 -0.008654
0.037533 0.047573 0.012797
0.097215 -0.070225 0.001876
-0.067202 -0.036629 -0.008604
0.054198 0.062160 0.006800
-0.028948 -0.021724 -0.011519
-0.003193 -0.038845 0.002954
0.060360 0.073144 -0.008577
-0.016116 0.006450 -0.010351
0.066600 -0.045632 -0.010021
-0.043021 -0.024492 0.009651
-0.068072 -0.033303 -0.011523
-0.040028 0.039314 -0.010525
0.101270 -0.062716 0.003926
0.008470 -0.018496 0.011807
0.003821 -0.007824 0.008921
0.055967 -0.036107 -0.010617
-0.044513 0.030734 -0.008988
-0.031545 0.043948 0.002576
0.069675 0.082714 0.010505
-0.027860 0.017107 -0.009711
0.072396 -0.043434 -0.012973
0.011374 0.027112 -0.012453
-0.072580 0.020712 -0.011221
-0.023725 0.039282 -0.008421
0.046709 -0.033348 0.008600
-0.086145 -0.010267 -0.011371
-0.040532 0.039221 0.011249
-0.023454 0.015387 0.012006
0.021755 -0.037861 0.005218
0.064465 0.085397 -0.001572
-0.077990 0.015751 0.011121
0.032846 0.043842 0.000782
0.048990 0.073149 -0.006314
-0.037587 -0.025399 -0.011670
0.071447 -0.063109 -0.006137
-0.021329 0.027065 -0.009047
0.060686 -0.058472 0.001273
0.052974 -0.041728 -0.013324
-0.080508 -0.018474 -0.008645
-0.100408 -0.008707 0.012420
0.037300 -0.037618 -0.012848
0.002012 -0.006217 0.006220
-0.034088 -0.034957 0.009302
-0.006569 -0.004165 -0.017423
-0.066175 0.026244 -0.010681
-0.015435 -0.017795 -0.012492
-0.050626 -0.043556 -0.010388
0.006348 0.000496 0.006462
-0.096472 -0.020460 0.002940
0.074261 -0.049166 0.008583
0.066164 0.074496 0.010745
0.005114 -0.001228 -0.005480
-0.015831 -0.007967 0.015728
-0.018463 0.024217 -0.009729
-0.047079 -0.020977 -0.009974
0.035597 0.035776 0.010984
0.058734 -0.044189 0.011284
0.020966 0.039647 0.009910
0.082340 -0.064743 -0.007732
-0.078567 -0.031247 -0.003227
0.025930 -0.021088 0.009145
-0.098511 -0.016453 0.013348
0.023777 -0.038700 -0.006960
0.054792 0.062022 -0.007226
-0.021873 0.012690 -0.010049
0.040921 -0.035070 -0.013223
0.089905 -0.065980 0.006036
-0.080889 -0.001017 -0.013125
0.041630 0.068520 -0.003933
-0.015493 -0.028558 -0.012625
-0.009536 0.020505 0.009604
-0.057615 0.007156 0.009998
-0.051840 -0.045256 0.003736
0.081936 -0.054642 -0.013596
-0.088662 -0.011729 0.014332
-0.000243 -0.023069 -0.010073
-0.004403 0.034468 -0.008060
0.064868 -0.043078 0.008762
-0.006098 -0.039001 0.007204
0.023898 -0.023210 0.000053
-0.000124 -0.007483 -0.018002
-0.031035 0.040884 -0.007391
-0.084926 0.012047 -0.007820
0.022302 -0.031968 0.010801
0.001472 -0.006196 0.007754
-0.075193 0.017313 -0.008327
0.085666 -0.054973 0.008437
-0.042794 0.042938 0.001465
-0.018250 -0.031937 -0.009952
0.059866 -0.049437 0.007469
0.085308 -0.067052 -0.010709
0.003305 -0.003726 -0.018055
0.080784 -0.053234 0.011096
-0.098713 -0.010488 -0.014060
-0.052441 0.018432 0.011960
-0.006244 0.001982 0.017801
-0.053577 0.014550 -0.009601
0.070015 0.089143 0.001360
-0.027148 -0.046222 0.010685
0.027536 -0.023710 0.001461
-0.046168 0.035708 -0.008938
0.000449 0.014391 0.009339
0.001762 -0.036447 -0.004689
0.076324 -0.046211 0.009454
-0.060720 -0.023963 -0.008769
-0.062413 -0.024100 0.012668
0.055606 0.057542 0.010211
0.066169 0.073549 -0.011252
0.002726 0.021256 0.009473
0.021321 0.033411 0.012453
-0.026817 0.033452 -0.009115
-0.086990 -0.025035 -0.011269
0.010865 0.040528 -0.007535
-0.082985 -0.014647 0.011658
0.061801 -0.049871 0.006059
0.014485 -0.014476 0.009236
0.070290 0.081578 -0.008271
-0.019119 -0.044166 -0.010458
0.036703 0.055807 0.009395
0.061258 0.082969 -0.006850
-0.052062 -0.025171 -0.009218
0.006925 -0.005880 -0.016384
0.018275 0.022072 -0.009961
0.015957 0.027963 0.009747
0.006367 0.015763 -0.012482
0.073287 0.089162 0.001634
-0.063410 0.026127 -0.004020
0.060679 0.070232 -0.008605
-0.027645 -0.033394 0.012075
-0.015307 -0.007524 0.017067
0.090763 -0.068545 -0.005706
-0.013955 0.039538 -0.001662
0.100582 -0.064432 0.007817
-0.030273 -0.029063 -0.009499
-0.012536 0.038622 -0.002372
0.054538 0.063620 0.000046
0.038865 -0.025076 0.009007
0.004842 0.004856 -0.002474
-0.096795 -0.007143 0.011248
0.005961 0.036483 0.008117
-0.004066 -0.026462 0.011984
-0.043289 0.016810 -0.009893
-0.009911 0.000424 0.007019
0.035286 -0.030103 0.011576
0.073267 0.085220 -0.007686
0.077572 0.088772 0.004507
0.039847 -0.048418 -0.001537
-0.015076 -0.004252 0.014846
0.047168 -0.051162 0.003674
-0.014498 -0.011036 0.015107
-0.059556 -0.039919 -0.009675
0.033753 -0.044844 -0.004706
0.077716 0.089642 0.009605
-0.018916 0.024918 0.009825
-0.072466 -0.022886 -0.008451
0.027135 -0.033599 -0.009829
0.005157 -0.001711 -0.017805
-0.066732 0.020863 -0.012186
0.082680 -0.054755 -0.010928
0.082590 0.085610 -0.005305
-0.014190 -0.001933 -0.015215
-0.000687 -0.037043 -0.006201
0.006006 -0.006205 -0.018058
0.028467 -0.040761 -0.007540
-0.088632 -0.008499 0.012691
0.023114 -0.027947 0.011617
0.066809 0.089599 -0.003569
-0.089455 -0.024445 -0.010700
0.086095 0.085207 0.005438
0.045201 0.072643 0.001819
-0.026671 -0.049725 -0.005276
-0.002752 0.014007 -0.009662
0.018902 0.038352 -0.011973
0.041788 0.067768 -0.005480
0.058614 0.067322 -0.008589
-0.014785 0.005502 -0.012219
0.003645 0.029309 0.012159
0.053572 0.065082 0.013230
-0.055239 -0.022795 -0.008951
0.061731 0.081440 0.010647
0.061677 -0.038669 0.011470
0.094269 -0.067841 0.002498
-0.013340 0.011076 -0.017407
0.079632 0.080103 0.010579
0.029903 -0.027852 -0.010523
-0.040918 0.014747 0.010907
0.031859 0.047345 0.003372
-0.010829 0.036967 0.005150
-0.086424 -0.009755 -0.006362
-0.029403 -0.033346 0.012069
-0.037395 0.037922 0.012286
0.018688 0.034603 0.012530
-0.063494 -0.026330 0.010072
0.017976 0.049281 0.002889
0.004055 -0.007892 -0.016083
0.001277 -0.002759 -0.018028
-0.066098 -0.037625 -0.006023
-0.069027 0.017990 -0.012245
-0.021461 0.042089 0.001690
-0.057842 0.034429 0.006442
-0.004900 0.001574 -0.016366
-0.008494 -0.029302 -0.008665
0.084039 -0.053639 -0.010793
0.020959 -0.025521 0.004556
0.044292 0.061470 0.001714
-0.000895 0.006206 -0.018023
0.072844 -0.058461 -0.012170
0.043950 -0.038107 0.011388
0.073051 -0.050521 0.001433
-0.008482 0.003461 0.005778
0.087848 -0.057518 0.008204
0.023905 0.054433 0.000577
0.014926 0.045633 0.005246
-0.014837 -0.003286 0.013482
-0.005169 -0.009467 0.017466
-0.035827 0.033352 0.012645
0.023363 -0.016402 0.011670
0.034205 -0.040610 0.009274
-0.005052 -0.008886 0.008129
-0.059826 0.029880 -0.011289
-0.079599 0.016927 -0.004828
-0.067574 -0.033522 -0.007821
0.067311 -0.049451 0.004337
-0.018081 -0.033792 0.009235
0.077451 0.086112 0.009241
-0.086484 0.008757 -0.012496
0.020032 0.045784 0.009936
-0.048473 -0.028564 0.009544
-0.003315 -0.013009 0.009417
0.082882 -0.049797 -0.013123
-0.025519 0.034661 -0.009105
0.056139 -0.043645 0.008710
-0.014851 -0.003326 0.015416
-0.033221 -0.050892 0.002252
-0.069666 0.025654 -0.000560
0.062830 0.082648 0.005997
0.032437 -0.027687 -0.000338
-0.039431 -0.040369 0.009392
-0.024841 0.041789 0.004287
-0.072218 -0.020442 0.012929
0.017403 -0.016455 0.009210
0.046973 0.063769 0.009905
0.048994 0.065476 0.012610
0.066655 0.081175 -0.007681
0.037044 -0.025201 -0.010723
0.070498 0.085278 -0.007000
0.079141 -0.059099 -0.010454
-0.077159 -0.016229 0.010067
0.072527 0.091225 0.003022
0.021466 0.045850 -0.010056
-0.100498 -0.006481 -0.013614
-0.066522 0.004963 -0.009804
0.011253 -0.035518 0.000509
-0.040767 -0.046046 -0.011201
0.066060 -0.048333 -0.008169
0.013239 0.037732 0.011105
0.039797 -0.048442 0.000279
0.006587 0.011022 -0.010007
-0.065545 -0.017618 -0.009158
-0.021581 -0.019846 0.011905
-0.059126 -0.033467 0.009744
-0.021107 0.038818 -0.006569
-0.097039 -0.020446 -0.008358
0.025406 -0.016182 0.010889
0.036425 0.042209 0.007812
-0.002909 0.012045 0.017249
0.019066 0.028284 -0.000986
-0.091928 0.002344 -0.012931
0.002244 -0.010470 -0.010324
-0.075365 -0.013531 0.011000
0.069881 -0.059408 -0.006721
-0.009383 0.005757 -0.018112
-0.056761 -0.019366 -0.009938
0.051697 -0.042146 -0.010758
0.018704 0.020962 -0.011867
-0.020655 -0.032893 0.009253
0.016007 0.018314 0.009328
-0.023135 0.042485 0.002327
0.047199 -0.051671 -0.004352
-0.079631 0.012344 0.011930
0.060791 0.071135 0.000456
-0.015776 -0.029938 -0.012596
-0.012286 0.022077 -0.009743
0.044659 0.071338 -0.003183
0.008650 -0.007933 0.014198
-0.081873 -0.005429 0.009042
-0.067896 0.017527 0.009404
0.074029 -0.052502 -0.001285
0.012337 -0.009568 0.009752
0.098097 -0.058386 -0.011636
0.095328 -0.066477 0.004561
-0.074365 -0.000990 0.008769
-0.078084 -0.018828 -0.008900
-0.019526 -0.016367 -0.010087
-0.011598 0.014995 -0.013395
0.082016 -0.052306 -0.011020
0.048026 0.072553 -0.006261
-0.018406 0.011518 -0.009934
-0.011648 -0.044191 -0.003940
-0.049634 0.035387 -0.006873
-0.013155 0.006526 -0.018062
0.017078 -0.014193 0.011757
-0.027229 -0.024694 0.009322
-0.009485 -0.019923 -0.012576
0.026362 0.041295 0.010231
-0.102194 -0.016175 0.009641
0.051057 0.061510 0.001555
-0.047835 0.030562 0.012570
-0.000693 -0.036867 -0.006519
0.094168 -0.071045 -0.002854
0.013180 0.027409 -0.009814
-0.059415 -0.041564 -0.000308
-0.038812 -0.025910 -0.009332
0.041322 0.047223 0.012713
0.048358 0.067546 -0.006260
0.033681 0.054760 -0.010486
0.017799 0.023134 -0.012520
-0.070224 0.015003 0.009441
-0.014299 -0.045918 -0.003511
0.082327 0.086200 -0.008816
-0.013942 -0.013937 -0.012652
0.012599 0.040581 -0.008836
-0.067547 0.018739 0.000253
-0.086995 -0.009228 0.012110
-0.025419 0.023889 -0.012214
0.054598 0.067896 0.010452
0.057707 -0.041315 0.011413
-0.035062 -0.035487 -0.009333
0.007937 -0.016093 -0.012707
0.044966 0.045259 0.012072
0.047247 0.072036 0.007621
-0.050670 0.027759 0.012449
0.054539 0.060740 0.008074
0.067336 0.090840 -0.000237
-0.005175 0.018833 -0.012495
0.067931 0.086668 0.007254
-0.038433 0.039232 0.011271
-0.070068 -0.032302 0.012652
0.060308 0.082501 -0.006401
0.075928 0.088122 0.011205
0.049002 0.075294 -0.002514
0.059394 0.069409 -0.011342
0.075447 0.091020 -0.005445
0.005572 0.002623 -0.006682
-0.016137 -0.007718 -0.014378
-0.048705 -0.022322 0.011549
-0.009969 0.001419 -0.000900
0.007886 -0.011323 0.012462
0.035345 0.046754 -0.004401
-0.064734 -0.020334 -0.011439
-0.102012 -0.011134 -0.012290
-0.025679 -0.047289 0.008995
0.063944 -0.043488 -0.010783
-0.029021 0.031044 0.003660
-0.074730 -0.024075 0.010031
-0.005204 -0.031954 0.011826
0.092169 -0.071562 0.001021
-0.091265 -0.019945 0.005253
0.050676 -0.047864 -0.005640
-0.012639 -0.000315 0.009471
-0.011863 -0.011748 0.016718
-0.046873 -0.047566 0.002075
0.072429 0.075991 0.013328
-0.069462 -0.015482 0.011782
0.057792 0.074393 -0.007618
-0.050438 0.012813 -0.011039
0.072629 -0.061622 -0.009694
0.012190 0.016422 0.009202
-0.083010 -0.017535 -0.008387
0.074638 0.087932 0.008154
-0.085839 -0.025600 0.013059
-0.074957 -0.000759 -0.010684
0.006159 -0.000701 0.005071
0.093434 -0.058617 0.008359
-0.077074 0.019172 -0.001889
0.042215 0.070081 0.000254
0.003165 0.012831 -0.009629
-0.078178 -0.018444 0.013130
-0.008190 -0.005779 -0.009920
-0.031420 0.040949 0.007792
0.039885 0.045930 0.012663
0.074793 0.088626 0.006684
0.000566 -0.014932 0.014029
-0.001871 0.002545 0.017675
0.066897 -0.051095 -0.013410
0.004530 -0.008878 -0.018190
-0.046580 -0.025805 0.012248
-0.078310 -0.000027 -0.010206
-0.002030 0.000549 -0.016485
-0.036057 -0.027885 0.012083
-0.009008 0.004436 -0.004218
0.068673 -0.044634 0.008711
-0.013509 -0.005811 -0.009846
0.050305 -0.031556 -0.013193
0.062293 0.075594 0.002422
-0.034891 -0.025469 0.011927
-0.041651 0.030682 -0.009202
-0.077436 -0.014552 -0.008946
-0.084374 0.011157 -0.011911
-0.020259 0.026140 -0.009619
-0.043281 -0.048112 0.006208
0.037360 -0.029805 -0.010443
0.016269 -0.012340 0.009174
-0.075691 -0.032923 0.000295
0.035704 0.053353 -0.008655
-0.064298 -0.031578 0.003559
0.063437 0.063569 0.012702
-0.054196 0.017401 -0.012184
0.035282 -0.039206 -0.009004
-0.061798 -0.019700 -0.011336
-0.092114 -0.023398 0.012345
0.104768 -0.063083 -0.004876
0.017920 -0.026291 0.011748
-0.012164 0.003782 -0.009920
-0.029716 -0.022827 0.010534
0.002262 0.010808 -0.018168
-0.034672 0.038573 0.011802
-0.066217 0.024174 -0.011776
-0.000508 -0.029887 -0.012653
0.050898 0.057817 -0.011692
0.049572 -0.030245 0.009678
0.078248 0.086991 -0.005789
-0.012399 -0.041162 -0.009735
0.063196 0.070436 0.010627
0.047935 -0.034184 0.011541
-0.001134 -0.013861 -0.016873
0.061304 -0.058362 0.003220
-0.082413 0.008868 0.009079
-0.023822 0.019550 0.009590
-0.056975 0.024987 0.012296
0.034265 -0.022507 -0.010369
0.023070 0.053549 0.002202
0.066241 0.084485 -0.005666
0.093615 -0.071215 -0.003786
-0.083724 -0.017262 -0.011389
0.056369 0.074807 -0.006603
0.017453 -0.013255 -0.010069
-0.041015 0.026375 -0.009356
0.054011 0.069452 0.012767
-0.067643 -0.018680 -0.008841
0.005096 -0.002197 -0.006117
0.092090 -0.063656 -0.013240
0.012554 0.018451 0.011859
-0.036070 -0.024980 0.009488
-0.062368 0.008021 0.008857
0.055854 0.060471 0.008988
0.080628 -0.068834 -0.001793
0.045342 0.069331 0.008833
0.075768 0.078307 0.013357
-0.047014 -0.024786 0.009688
-0.071039 0.000375 0.010379
0.018194 -0.034793 0.007222
-0.054171 0.033469 -0.006519
0.022569 0.043321 -0.007264
0.039427 0.049365 0.001074
-0.069852 0.024886 -0.005670
-0.038119 -0.047896 -0.007637
0.035302 0.045835 0.004865
-0.035952 -0.048738 -0.007595
-0.060206 0.011987 0.011706
-0.032847 -0.047281 -0.010637
-0.059852 0.009453 0.008978
0.076274 0.077193 0.013265
0.003354 0.009008 0.017130
0.039415 -0.043296 0.008928
-0.022261 -0.020100 0.009564
-0.009438 0.019946 -0.009842
-0.084667 -0.016228 0.007577
0.043537 0.061055 -0.008369
-0.088584 -0.009681 -0.012781
-0.080186 0.015527 -0.005615
0.005092 0.010557 0.009000
0.005231 -0.004736 -0.009849
-0.030640 -0.031957 -0.012288
0.045255 0.059455 0.010402
0.024804 0.053458 -0.005806
-0.051595 0.039302 0.002809
-0.062035 0.021113 -0.009471
0.052646 0.072368 -0.005705
-0.033876 0.023598 -0.009391
0.047200 0.071892 -0.006239
-0.089022 -0.010782 -0.012326
-0.014986 0.008227 0.009443
0.041872 -0.031832 0.000951
0.030409 0.050716 0.012008
-0.095575 0.001134 0.009677
-0.101584 -0.005109 -0.005666
0.054258 0.065820 0.002030
0.025556 -0.021797 -0.010587
0.011188 -0.021575 -0.012858
0.004951 0.007827 -0.016930
-0.017973 -0.047946 -0.003462
-0.086264 -0.009348 -0.009219
-0.004705 -0.041321 -0.001011
0.086046 -0.051254 -0.012356
-0.018730 -0.022972 0.012075
0.072924 0.086582 -0.009705
0.005756 -0.001836 0.005384
0.074784 -0.045756 0.008847
0.068276 0.088021 -0.002061
-0.015978 -0.038140 -0.004843
-0.075680 0.006103 -0.006779
0.015090 0.022958 0.012126
0.057001 -0.041219 -0.013421
-0.076628 -0.003060 0.008596
0.018243 0.038968 -0.007550
-0.064754 0.029781 -0.004546
-0.004922 -0.025408 -0.000242
0.040074 0.049233 0.000761
0.054509 0.065256 -0.005568
0.026907 0.050752 0.010658
-0.029426 -0.039592 -0.006003
0.016668 0.033655 0.009900
-0.005573 -0.020712 -0.012690
0.005897 0.033354 0.010828
-0.100740 -0.004568 0.008495
0.079191 0.080028 -0.009936
0.032248 0.036329 0.009853
-0.050889 0.015379 0.011778
0.067336 -0.061676 -0.004759
0.026129 -0.025316 -0.010530
-0.030327 -0.025202 -0.012108
0.064159 0.076357 0.000922
0.089385 -0.054256 0.010611
-0.076839 -0.003144 -0.012726
0.009799 0.012612 0.010166
-0.012224 0.005229 -0.018056
0.049758 0.064278 0.013042
-0.013854 -0.001820 -0.010023
0.000667 0.008232 0.017035
-0.018401 -0.035690 0.011971
0.020473 -0.013184 -0.012397
0.087378 -0.056127 -0.010988
0.098673 -0.061900 -0.009490
0.059181 -0.047625 0.008203
0.058158 -0.056834 -0.005245
0.054207 0.055306 -0.010048
0.013879 -0.020463 0.001307
-0.037246 -0.037430 -0.009322
0.048951 -0.031030 0.009001
0.019586 -0.019932 -0.010308
-0.066084 -0.026576 0.010089
0.023047 0.051810 0.006659
0.028855 -0.026701 0.003410
0.075465 0.087065 0.011969
0.022697 0.035790 -0.009587
-0.045680 0.014654 0.010837
0.054125 -0.051244 -0.010557
0.049845 -0.042266 0.011274
0.095177 -0.067452 0.003396
-0.015534 -0.005789 -0.013011
-0.006663 0.006773 0.008041
-0.040240 0.036884 0.012602
0.030388 -0.025397 0.001340
0.059418 -0.036033 0.010273
-0.061146 -0.031626 0.009831
-0.013037 -0.045191 -0.003283
0.028642 -0.029306 0.008869
-0.062760 -0.039880 0.001077
-0.031628 0.016122 -0.011952
-0.011981 0.006908 -0.012110
-0.002183 -0.031715 -0.009267
0.069550 0.077784 0.010901
0.065815 -0.047759 0.006729
0.079298 -0.049246 -0.013459
-0.020272 -0.039964 -0.012559
0.081373 -0.061843 -0.012656
-0.031825 -0.022689 0.011064
-0.078287 -0.004016 0.010251
-0.006581 0.014179 0.015168
0.060079 0.077116 0.009014
0.104636 -0.062642 -0.005238
-0.061309 0.004541 -0.010971
-0.076701 -0.031810 0.007173
-0.019977 0.027026 -0.008126
-0.075761 0.015525 -0.012363
-0.013653 -0.032298 -0.009515
-0.067434 0.022491 -0.003863
0.010056 -0.007907 -0.011577
0.090739 -0.068078 -0.006976
0.022362 0.042756 -0.006679
-0.100373 -0.017163 -0.010413
0.033836 -0.027240 -0.010465
-0.039067 -0.048470 0.005591
-0.038225 0.042494 -0.005558
0.059589 0.071724 0.010652
