0.039255 0.013114 -0.110545
0.037098 -0.017061 0.045468
-0.014716 -0.016080 0.106741
0.042633 0.013560 0.051364
-0.010922 -0.021791 0.049491
-0.021085 -0.022110 0.037374
-0.027354 0.012980 0.095570
-0.050720 0.027434 -0.105026
-0.017446 -0.026826 -0.038963
0.000259 -0.023235 0.027457
-0.039569 -0.023375 -0.051345
-0.008368 -0.009213 0.117078
-0.053039 -0.017471 -0.100078
-0.024270 -0.023854 0.000583
-0.013714 0.033339 -0.059753
0.026079 -0.022823 -0.004630
-0.003194 -0.009838 0.130889
0.010505 -0.026129 -0.025727
-0.010914 -0.004943 0.117591
0.022519 -0.021629 0.021891
-0.018504 -0.029568 -0.090667
0.031421 -0.023409 -0.039191
-0.020673 -0.024907 -0.010950
-0.022461 -0.010389 0.081948
0.030467 0.006510 -0.111115
-0.011173 0.026635 0.059532
0.003715 0.013144 0.135655
-0.040544 -0.009636 0.023375
0.003421 0.002472 -0.110113
0.017219 0.010080 0.126923
-0.008084 -0.024745 0.007365
0.040098 -0.015887 -0.097094
-0.028566 -0.022559 0.010743
-0.007752 -0.030359 -0.091944
-0.038079 0.007650 0.042142
-0.005545 -0.009290 0.130425
0.012353 -0.016014 0.112214
0.034444 0.003816 -0.111467
-0.022667 0.015583 0.077681
-0.031809 -0.026527 -0.069557
-0.040336 -0.021444 -0.031439
0.032742 0.026517 -0.025175
0.006342 -0.024860 -0.000249
0.043566 -0.010955 -0.039134
0.015255 -0.024120 -0.001309
-0.046403 0.025951 -0.093351
-0.034082 0.032404 -0.092564
-0.007166 -0.025694 -0.007583
-0.039852 0.017311 0.020754
0.002176 -0.025453 -0.005221
-0.011878 0.028775 0.019817
-0.005274 0.035118 -0.091727
0.030871 -0.015324 -0.111766
0.006355 -0.020931 0.058605
0.017320 -0.025911 -0.035648
0.042422 0.016628 0.032434
-0.043977 -0.020870 -0.062346
0.014703 0.034315 -0.091263
-0.028782 -0.020367 0.041756
0.010530 -0.026119 -0.025388
0.000787 0.017139 0.121236
0.018295 -0.023432 0.081103
-0.043961 0.025397 -0.058515
0.044436 -0.009255 -0.018198
-0.017028 -0.023108 0.026450
0.023635 0.023854 0.049109
-0.011035 0.006546 0.132488
-0.045403 -0.004455 -0.111321
0.042056 0.009372 -0.102151
-0.048129 0.019232 -0.074357
-0.045299 0.019781 -0.031505
-0.052870 0.009995 -0.094703
0.038358 0.020130 0.047421
-0.041346 -0.015262 0.002942
0.000319 0.017048 0.121518
-0.014658 0.036284 -0.097853
0.012934 -0.003544 0.134512
-0.002326 -0.031324 -0.095539
-0.041470 -0.024977 -0.111127
0.045309 0.002658 -0.043120
0.002530 -0.025714 -0.009399
-0.034551 0.028208 -0.016723
0.034977 -0.000224 0.107989
-0.011984 0.016861 -0.110349
0.042050 -0.012545 -0.072685
-0.012156 -0.030847 -0.106141
0.032678 0.021891 0.061396
-0.015534 0.034370 -0.079525
-0.037235 0.026411 -0.007348
-0.039394 0.034487 -0.099622
-0.025247 0.009555 0.076040
0.041264 0.017139 0.045512
0.035799 0.024838 -0.009539
-0.036982 -0.021636 -0.111488
0.045054 -0.001028 0.078437
0.042661 0.010773 -0.089761
0.016271 -0.025852 -0.031667
0.034686 0.023382 0.075756
-0.024718 0.034968 -0.094777
0.012329 -0.029028 -0.079657
0.041931 -0.014620 -0.052787
0.000621 0.030939 -0.021790
0.021876 -0.018254 0.104862
-0.016513 -0.021688 0.049720
0.018083 -0.000591 0.130799
-0.002311 0.026359 0.062222
-0.020288 -0.018141 0.068696
-0.038102 0.021248 0.019099
-0.015018 0.024085 0.089543
-0.032861 0.035506 -0.098725
-0.033834 -0.024434 -0.041471
-0.041530 -0.020782 -0.034817
-0.003399 0.035018 -0.089560
0.003175 -0.027979 -0.049195
0.016116 -0.002597 0.136987
-0.037663 -0.026474 -0.092357
0.033144 0.022645 0.044197
-0.005988 -0.017977 0.109114
-0.002202 -0.025239 -0.111785
0.045024 0.006872 -0.046499
0.040457 -0.017242 -0.063627
0.042160 0.011522 0.072496
-0.014393 0.034579 -0.082884
-0.005118 0.026820 0.047752
-0.021069 0.021573 0.069752
-0.000673 -0.027599 -0.040394
-0.007098 0.035990 -0.099830
0.039206 0.004244 -0.110737
-0.002435 0.028945 0.071251
-0.000730 0.026420 0.051088
-0.016928 -0.017147 0.085382
0.009171 0.034652 -0.107167
-0.009859 -0.025635 -0.008251
0.011742 -0.023831 0.008279
0.020432 0.000047 0.117294
0.045488 0.004967 -0.035210
0.023921 -0.019414 0.053993
0.029818 0.023302 0.070530
0.005152 0.029298 0.072710
0.045490 0.003926 -0.036320
-0.007030 0.013375 0.118007
-0.004803 0.035025 -0.090919
-0.011024 0.002461 0.136420
-0.046762 -0.026622 -0.103589
0.044060 0.015394 -0.007929
0.036905 0.022010 0.076076
-0.039570 -0.023610 -0.055043
0.045781 0.001934 0.029758
0.006612 -0.026686 -0.111340
0.041618 0.020040 -0.055097
0.025633 -0.027925 -0.094194
-0.007292 -0.011072 0.115636
-0.007163 -0.021777 0.050755
0.005426 0.025433 0.061229
0.025708 0.023313 0.095547
0.013352 -0.020338 0.057159
-0.045346 0.023874 -0.063002
0.035653 0.023685 0.014129
-0.046857 -0.014954 -0.051260
-0.008882 0.031755 -0.030247
-0.026663 0.013334 0.092970
0.009770 0.027394 -0.111886
0.039309 -0.019248 -0.055049
-0.031643 -0.011520 0.055511
0.021669 0.016395 0.111854
-0.003711 -0.022012 0.046696
0.005227 -0.029826 -0.081828
0.039365 0.023363 -0.029792
-0.019022 0.026330 0.053051
-0.007437 0.011710 0.138077
-0.042695 -0.020515 -0.043834
-0.044105 -0.027271 -0.097377
-0.024368 0.016537 0.103099
0.043018 -0.005942 -0.081340
-0.035805 -0.026244 -0.111026
0.030757 -0.022145 -0.010389
-0.037278 0.020013 0.027884
0.027205 -0.020521 0.028346
-0.028832 0.032526 -0.076249
0.034945 0.026726 -0.042315
0.009386 0.023866 0.109969
0.006435 -0.021401 0.046498
-0.049187 -0.012041 -0.079516
0.010879 0.029378 -0.012001
-0.000766 -0.021952 0.045362
-0.036025 -0.018566 0.020457
-0.021652 0.016538 0.080920
0.023874 -0.028401 -0.103057
0.044178 0.006200 -0.068034
-0.008666 -0.024193 0.016432
-0.032203 0.016980 0.053808
0.020567 0.004335 0.117177
-0.037899 0.028175 -0.111762
-0.032235 0.032173 -0.082730
0.039794 -0.018377 -0.024203
-0.017961 -0.028798 -0.071418
0.015353 -0.024497 -0.007377
-0.036007 0.010066 -0.110685
-0.030373 -0.011202 0.058045
-0.036253 -0.026554 -0.084075
-0.024876 -0.024460 -0.012600
0.043503 0.015968 0.010482
0.013835 -0.022639 0.021119
-0.020322 -0.019630 0.065831
-0.051071 0.003193 -0.079774
0.019434 -0.027279 -0.065213
0.042599 -0.004947 0.072185
-0.006694 -0.026192 -0.016859
-0.040060 -0.021441 -0.029104
-0.050989 0.004753 -0.080552
-0.054024 -0.014370 -0.107040
-0.028314 0.028898 -0.008313
0.033940 0.029129 -0.095169
-0.029745 0.027517 0.012030
-0.024776 0.016795 0.096219
-0.043203 0.013340 0.007216
0.003690 -0.025631 -0.009108
0.044705 0.008406 -0.052114
-0.000309 0.015851 0.118626
0.034339 0.023576 0.023219
-0.035455 -0.023615 -0.032434
0.044638 0.006655 0.077072
0.018119 -0.022824 0.013573
-0.032184 0.029962 -0.041282
0.021962 -0.019365 0.064433
0.042982 0.015332 -0.065569
0.003339 0.014269 0.136833
0.038824 -0.017665 0.018416
0.006421 0.028514 0.009444
-0.044484 -0.004808 0.004948
-0.044709 -0.024432 -0.110783
-0.043053 0.031196 -0.095247
-0.017724 -0.031026 -0.104550
0.028547 -0.024353 -0.043961
0.003862 0.026716 0.040823
-0.045745 0.002071 -0.000659
-0.007466 -0.021902 0.047951
0.034882 0.001244 -0.111475
-0.032438 0.021986 0.044406
0.031958 0.021983 0.089119
0.032379 -0.022067 -0.016533
-0.020571 -0.002569 0.108795
0.036260 0.026955 -0.066177
0.008095 -0.023294 0.091333
0.027117 -0.019560 0.044184
0.001481 -0.010138 0.137290
-0.011251 -0.028881 -0.110173
0.042985 0.015642 0.031602
0.030096 -0.025835 -0.080796
-0.004844 0.031314 -0.023890
-0.012701 0.029376 0.009710
-0.022390 0.033917 -0.109968
-0.028551 0.026410 0.032668
0.017362 -0.023222 0.008755
-0.022286 -0.012861 0.089768
0.002743 0.030489 -0.016807
-0.018051 -0.026880 -0.041089
-0.012805 -0.022850 0.060950
0.026182 -0.027778 -0.091006
0.028491 0.031117 -0.107864
0.044998 0.002536 -0.052457
0.000695 -0.014425 0.116233
0.034928 -0.022658 -0.044456
0.036818 -0.016355 0.083792
-0.048876 0.013361 -0.053928
-0.048609 -0.013485 -0.076035
-0.000359 -0.021122 0.060648
-0.019309 0.030021 -0.007968
-0.041046 -0.007397 0.023805
-0.048985 -0.008644 -0.053347
-0.050924 0.005716 -0.080337
0.042538 0.016966 0.024444
0.043360 0.007922 0.060173
0.004119 -0.026194 -0.018391
-0.045575 -0.014703 -0.032813
0.015389 0.003493 0.131755
-0.023557 0.016872 0.071923
0.027013 -0.022440 -0.001354
-0.036329 -0.021927 -0.010357
-0.010398 0.031727 -0.030216
0.042459 0.012252 0.058438
-0.021392 -0.015484 0.098822
0.020989 -0.022963 0.005237
-0.001900 0.034702 -0.081193
-0.024033 -0.023445 0.008494
0.038943 -0.017218 0.024647
0.009739 -0.022627 0.097215
-0.037812 0.002988 0.045026
-0.000288 -0.025288 -0.001380
0.024684 -0.023689 -0.016195
0.030296 -0.022099 -0.006906
-0.015880 -0.028526 -0.063590
0.028672 0.023059 -0.111779
-0.024688 0.026885 0.036113
0.017110 -0.026075 -0.038631
0.020121 -0.007749 0.114276
0.002826 -0.021075 0.108476
0.034657 -0.018391 0.041461
0.015662 -0.029677 -0.090802
-0.039501 0.021434 0.009920
0.017003 -0.005685 0.122757
-0.006423 -0.021624 0.104627
-0.009177 0.031177 -0.020411
-0.008140 -0.022603 0.038882
-0.034997 0.026914 -0.000416
-0.029711 0.007091 0.063228
-0.020977 0.033755 -0.077680
0.037570 -0.001674 0.101471
0.013381 0.031846 -0.056807
-0.023847 -0.018032 0.062771
0.027594 -0.022852 -0.009910
0.041682 -0.014832 -0.059120
0.041972 0.019813 -0.040673
0.045486 0.008735 -0.022862
-0.017030 -0.030706 -0.107150
-0.046598 -0.018723 -0.083052
-0.009219 0.005072 0.118878
0.011345 -0.030354 -0.099005
-0.046609 0.004677 -0.009771
-0.016435 -0.017613 0.085748
0.027515 -0.000729 -0.110879
0.041720 0.013499 -0.101026
0.006655 -0.022945 0.025563
0.041512 0.017165 0.041845
0.045517 0.009235 -0.016353
0.044478 0.011171 0.034294
0.038159 0.025173 -0.096064
0.045979 0.002836 -0.015127
0.016316 -0.028267 -0.074506
-0.031380 0.029943 -0.037974
-0.015043 -0.022415 0.039020
-0.028274 0.032302 -0.070022
-0.034304 0.028110 -0.111729
0.011636 -0.025943 -0.023000
-0.002320 -0.008147 -0.110325
-0.013273 0.035517 -0.107447
-0.001932 -0.021593 0.051400
-0.034364 -0.019171 0.025688
-0.028578 -0.008045 0.063727
0.045267 -0.004433 0.026291
-0.013277 0.035786 -0.105971
-0.003911 -0.022365 0.098260
0.038119 0.024816 -0.106698
-0.019842 0.019836 0.104405
-0.039666 -0.011040 0.025675
-0.035560 0.028448 -0.025571
-0.022829 0.014409 0.082973
0.003765 -0.010183 0.131159
-0.024488 0.028098 0.015472
-0.014318 -0.019199 0.082232
-0.047566 0.000536 -0.017709
0.006898 0.013811 0.138451
0.002537 0.027853 0.092473
0.044646 0.008119 -0.054269
0.039884 0.022242 -0.010197
0.043233 0.004188 0.065746
0.018473 -0.028348 -0.087527
0.025499 -0.021515 0.018219
-0.046875 -0.015176 -0.053384
0.021718 -0.024980 -0.030758
-0.006409 0.008466 0.138311
0.003089 -0.010976 0.131047
-0.018135 0.032202 -0.045321
-0.030947 -0.021088 0.025784
-0.033944 -0.021380 0.008953
0.028128 0.031608 -0.096184
-0.024979 -0.005120 0.085652
-0.027367 -0.023016 0.007894
-0.016816 0.027918 0.031140
0.030838 0.024676 0.081613
0.030619 -0.017936 -0.111908
0.025480 0.032135 -0.107338
-0.050895 0.011586 -0.092243
-0.016379 0.034116 -0.109829
-0.020501 -0.030782 -0.106973
0.028637 -0.023249 -0.022916
-0.036757 -0.026311 -0.081467
0.041969 0.012461 0.084925
0.043978 -0.008794 0.033915
-0.019407 0.029318 0.003925
0.045090 0.011801 -0.014702
0.018247 -0.002811 0.129977
-0.025161 -0.022242 0.025426
-0.019654 0.035893 -0.105927
-0.044653 -0.006168 -0.111247
-0.007873 0.031510 -0.026176
-0.030302 0.007754 0.100598
0.035096 -0.017675 0.072821
-0.047845 0.030722 -0.099866
0.045408 0.010269 0.002739
-0.055816 0.008158 -0.101822
-0.002356 -0.023884 0.077742
0.042394 0.009858 0.065185
-0.015053 0.024373 0.076519
-0.007776 -0.023374 0.072726
0.040560 0.021845 -0.020992
0.034679 -0.021623 -0.019024
-0.048906 0.010321 -0.044237
-0.023839 -0.021597 0.040096
0.039764 0.023211 -0.052175
0.016911 0.024571 0.066531
-0.025280 0.027777 0.018640
0.018300 0.006480 0.120169
0.043239 -0.007365 0.052808
-0.050786 0.003195 -0.069515
-0.005289 0.028695 0.070364
-0.032109 0.026496 0.017942
-0.043480 -0.018173 -0.031711
-0.051152 -0.000353 -0.080854
0.015134 -0.029729 -0.106017
0.017409 -0.021234 0.034171
-0.045139 0.025088 -0.073452
-0.026768 -0.019396 0.054867
0.005749 0.016178 0.137780
-0.023753 0.012549 0.083821
-0.031675 -0.029911 -0.096630
0.005174 -0.021025 0.056260
-0.005626 -0.025428 -0.003182
0.035408 0.028181 -0.090472
-0.026046 0.007571 0.087683
-0.021964 -0.026580 -0.043730
-0.039192 -0.021395 -0.021968
-0.014808 0.023254 0.104700
-0.033400 0.022711 0.037426
-0.032990 -0.026237 -0.068817
0.030854 0.030721 -0.104144
0.041287 0.019677 -0.074662
-0.032709 0.032291 -0.087706
0.005629 -0.030839 -0.097841
-0.002939 -0.022369 0.040960
-0.037269 -0.019546 0.006934
0.038065 0.025296 -0.062615
-0.033542 -0.023079 -0.015026
-0.027080 0.004365 0.089082
0.037625 -0.021412 -0.081332
0.040812 -0.012352 0.074704
-0.005722 -0.009493 0.124387
0.035644 -0.004108 -0.111813
-0.006700 -0.030202 -0.085968
0.042815 0.017758 0.004010
-0.044980 0.032036 -0.097604
-0.037430 -0.013497 0.032131
0.038976 0.023817 -0.094077
0.042624 -0.005518 0.063921
0.012886 -0.023519 0.085381
0.006860 0.035503 -0.094675
0.037370 -0.002687 -0.111501
-0.040940 0.027844 -0.053089
-0.036102 0.027499 -0.013469
0.030118 0.030940 -0.106291
0.036917 0.022301 0.029184
0.013789 0.025374 0.106158
0.043641 0.004250 0.061227
0.013204 -0.019675 0.109338
-0.002609 0.014661 0.118641
0.045719 -0.001061 -0.019370
-0.031058 -0.022879 -0.003379
-0.040429 -0.015425 0.008524
0.009625 -0.027929 -0.055844
0.039458 -0.012176 0.070559
0.038730 -0.019914 -0.049216
0.032564 -0.024244 -0.060452
0.004126 -0.021109 0.054739
-0.045547 0.032386 -0.106760
-0.003168 -0.023164 0.029992
-0.054244 -0.009257 -0.096910
0.046118 0.001683 0.017685
0.001942 -0.024119 0.015144
-0.000376 -0.029141 -0.064947
0.045080 -0.003284 0.036672
-0.027404 -0.021255 0.037141
0.018802 -0.001676 0.127749
0.000466 -0.021819 0.046134
-0.023080 -0.010112 0.077673
-0.029256 0.030975 -0.048925
0.031111 -0.023989 -0.048673
0.038344 -0.004763 0.097473
-0.009637 -0.001730 0.138288
-0.022593 0.002774 0.107725
-0.020943 -0.003049 0.108415
0.014429 0.003161 0.138467
-0.012069 0.032811 -0.049499
0.011012 -0.022522 0.096742
0.029304 0.026539 -0.012759
0.000454 -0.023407 0.024937
0.023993 -0.026587 -0.067547
-0.005226 0.029015 0.015087
0.041054 -0.010088 0.064097
-0.010792 0.005817 0.129981
0.005315 0.015354 0.138453
-0.014699 -0.018462 0.105054
-0.027718 -0.028188 -0.086964
0.008857 -0.022401 0.100198
0.015232 -0.020119 0.063257
-0.010984 -0.000277 0.125308
0.040713 -0.015179 -0.086401
-0.028595 -0.030339 -0.096579
0.008642 -0.001386 -0.110270
0.023625 0.023338 0.062652
0.005415 0.025272 -0.111496
0.028387 0.024384 0.071765
-0.006725 -0.025649 -0.006778
-0.019514 0.028385 0.020022
0.009097 0.030235 -0.023033
-0.015679 -0.021801 0.048248
-0.010138 0.001986 0.118531
0.010502 -0.028804 -0.109429
0.036045 -0.009630 -0.111772
0.004622 -0.029922 -0.088147
-0.034578 -0.023833 -0.033262
-0.025740 -0.005930 0.073111
0.036838 -0.022152 -0.064424
0.041825 0.008726 -0.106286
-0.011578 0.028668 0.021740
0.011825 0.026887 0.024125
0.015139 0.029133 -0.017734
0.028150 0.018061 0.106601
-0.019427 0.028015 0.026715
0.010230 -0.027467 -0.110735
0.038325 0.022443 0.013463
-0.035481 0.028356 -0.023307
0.005285 0.026364 0.044030
-0.014358 -0.021177 0.073259
0.043798 0.014977 0.015362
-0.000098 -0.012482 0.122668
0.030517 0.024552 0.019008
-0.002109 0.031116 -0.022427
0.019942 -0.023490 0.079226
0.007764 0.029215 -0.003418
0.005624 0.030504 -0.021406
0.044601 -0.008371 -0.022416
0.017759 -0.004711 0.118042
0.036606 -0.022553 -0.093346
-0.004705 -0.027593 -0.039993
0.041093 -0.016783 -0.037805
0.007916 -0.029547 -0.079785
0.022865 -0.023458 -0.006639
0.039216 0.009095 0.095208
-0.054100 -0.006394 -0.110020
-0.045429 0.022397 -0.050909
-0.031326 -0.021225 -0.111144
-0.004973 -0.021815 0.049310
-0.054664 0.006144 -0.109661
-0.015052 -0.023205 0.027079
0.007661 -0.027267 -0.041305
0.018970 -0.023413 0.002785
-0.021426 0.003980 0.108500
0.007520 0.029749 -0.012081
-0.005380 -0.009686 0.121984
0.034614 -0.024186 -0.083043
-0.000916 -0.026224 -0.016147
0.039072 -0.014321 0.058089
0.037023 -0.008990 0.095979
-0.043548 0.012396 0.006258
-0.016701 0.024229 0.073021
-0.020674 0.027755 0.029177
-0.044743 -0.019234 -0.055894
-0.008018 0.003360 0.138343
-0.018771 0.033676 -0.071662
0.041968 0.016677 -0.083165
0.033888 0.029130 -0.088392
-0.051399 0.026099 -0.103001
0.029176 -0.021576 0.006924
-0.016596 -0.024912 -0.003607
-0.006526 -0.030873 -0.104913
0.046074 0.002688 0.020724
-0.024537 0.016547 0.102923
-0.028584 -0.007667 0.063938
0.000876 0.030625 -0.016660
0.020157 -0.024416 -0.015670
-0.036430 -0.023414 -0.033228
-0.017909 -0.024607 -0.000583
0.041925 0.010881 0.086605
0.032902 -0.015383 -0.111898
0.028061 -0.020942 0.020756
-0.017325 0.021703 0.079753
0.033688 0.004465 0.109921
-0.009191 -0.028147 -0.051354
0.025279 0.025155 0.087976
-0.001110 0.035677 -0.101462
-0.020342 -0.031002 -0.104901
0.041230 0.013357 -0.107402
-0.005230 0.026854 0.061950
-0.008167 0.011108 0.120704
0.016844 -0.017194 -0.111007
0.030798 0.022839 0.088407
0.012535 -0.024176 0.079229
-0.041389 -0.018190 -0.012354
0.044336 -0.006031 0.041595
0.018330 -0.024709 -0.016252
0.002306 -0.023176 0.094256
0.043608 -0.008332 0.043615
0.037527 -0.021358 -0.096533
-0.052451 -0.017522 -0.108531
-0.026392 0.014395 0.094614
0.045503 0.001398 -0.035087
-0.012632 -0.022405 0.060201
-0.042861 -0.028365 -0.100349
0.018671 -0.001154 0.120572
0.027460 0.026994 -0.111568
-0.055038 0.014585 -0.107036
0.017643 0.009042 0.121092
-0.007312 0.012282 0.136608
0.012116 -0.020425 0.058615
0.000147 0.023677 0.109701
-0.002682 0.010473 0.138345
0.024397 -0.023652 -0.014724
0.027767 -0.023780 -0.029393
0.033054 -0.025170 -0.088519
-0.033429 -0.011277 0.052384
0.020433 0.027327 -0.000842
-0.019639 0.026374 0.056312
-0.032258 0.024576 0.033295
-0.016920 -0.026466 -0.032601
0.020478 0.033437 -0.090823
0.029484 -0.023448 -0.030377
-0.014068 -0.019783 0.095334
-0.002472 -0.022313 0.102308
0.017218 0.005508 0.118737
0.037246 0.025364 -0.038932
0.002580 -0.025910 -0.012781
-0.027390 -0.029916 -0.108760
-0.010465 -0.021135 0.094365
0.045354 -0.005886 0.009567
0.015898 -0.020326 0.051748
0.008078 -0.028623 -0.064119
0.036227 0.027180 -0.073800
-0.049648 -0.014947 -0.111495
-0.012025 -0.030949 -0.104977
-0.021930 0.021212 -0.110751
0.014191 -0.003885 0.131370
-0.036347 0.022349 0.024325
0.003922 0.013764 0.131682
-0.051266 -0.000678 -0.089627
0.011306 0.029288 0.072016
0.030184 0.025335 0.006279
0.037389 0.025849 -0.059501
0.035407 -0.021025 -0.110112
0.035381 -0.023314 -0.068269
0.003438 0.026088 0.051818
0.010509 0.026249 0.036590
-0.010376 -0.002721 0.125847
-0.052366 0.020807 -0.096890
-0.038477 -0.002097 0.041232
0.001942 -0.024915 -0.111820
-0.034121 0.026831 0.005037
0.032972 0.013745 -0.111831
0.043697 0.011855 -0.065368
-0.028739 0.034996 -0.108334
-0.018581 -0.021517 0.062807
0.040212 0.022548 -0.035416
-0.035723 -0.001381 0.051284
0.041336 -0.016345 -0.022843
0.043153 0.009793 0.058430
0.043001 0.012134 -0.080001
0.041628 0.012583 -0.104732
-0.014584 0.023970 0.102669
-0.040064 -0.027596 -0.095657
0.008922 0.029029 -0.002769
0.004022 0.029181 0.073828
-0.047135 -0.013630 -0.047508
0.044243 0.004394 -0.068616
-0.010481 -0.005725 0.117616
0.018384 -0.018197 -0.111246
0.007870 0.019190 0.115357
0.015470 0.000067 0.131525
-0.028372 0.023649 0.053159
0.021588 -0.019332 0.065885
0.018811 0.001010 0.130469
0.027872 -0.026281 -0.080538
0.045922 0.004082 -0.017451
0.024144 -0.015262 0.109160
-0.000961 -0.021168 0.061442
-0.025344 -0.030981 -0.100590
-0.041189 0.034130 -0.105249
-0.042139 0.033831 -0.101758
-0.041699 0.025725 -0.035221
-0.042207 0.021194 -0.008673
-0.012223 0.007041 0.117005
0.003891 -0.022441 0.103913
0.027685 -0.006728 -0.110899
-0.043842 -0.021648 -0.070411
-0.009315 0.011755 0.117659
-0.026203 0.035989 -0.103688
-0.013812 -0.024127 0.013825
0.005598 0.027407 0.027719
0.016018 -0.025587 -0.026480
-0.052609 0.022297 -0.098266
0.020015 -0.019626 0.060262
-0.008316 -0.022446 0.083489
-0.015613 -0.026411 -0.026700
0.013913 0.012919 0.119593
0.043973 -0.009166 -0.041801
-0.040734 -0.027179 -0.109955
0.036020 0.025916 -0.035507
-0.018737 -0.017256 0.101959
-0.051681 -0.014038 -0.110693
0.007764 -0.011442 -0.110585
-0.002487 -0.025328 -0.001477
0.031467 -0.016384 0.093745
0.023893 -0.028382 -0.090507
-0.026089 -0.024680 -0.020045
0.038803 0.006338 0.098169
-0.038012 0.026038 -0.008683
-0.032882 0.027710 -0.001784
-0.001502 0.035622 -0.103162
0.030464 0.022704 0.089425
-0.051172 0.004308 -0.088950
-0.049080 -0.012016 -0.075960
0.016644 0.007544 0.119033
0.027112 0.016408 0.109989
-0.038535 0.021352 0.016210
-0.040325 -0.019669 -0.014463
0.026330 -0.016005 0.104040
-0.042659 -0.026845 -0.109713
0.028781 0.025439 -0.111764
0.015852 0.025980 0.029572
-0.019034 0.028265 0.022796
0.044992 -0.002478 0.079734
0.039028 0.021416 0.022406
-0.038509 0.022960 0.009089
0.017900 -0.021034 0.098125
0.016089 -0.005794 0.118426
-0.047935 -0.018058 -0.092902
0.027097 0.031967 -0.105866
-0.023464 -0.022531 0.025734
-0.003450 -0.009613 0.130901
-0.028394 0.025653 0.041258
0.006187 -0.030974 -0.094112
-0.024441 0.030719 -0.030160
0.001840 -0.021620 0.050058
-0.030078 -0.023863 -0.016284
0.005928 0.015781 0.138339
0.023345 0.031025 -0.109927
-0.004364 0.013289 0.138034
-0.054160 -0.010871 -0.097338
-0.003041 -0.004173 0.138459
0.013372 -0.020346 0.058880
-0.044132 -0.021330 -0.070408
-0.043073 -0.021310 -0.056505
-0.010669 0.028506 0.024868
0.045495 -0.001801 -0.026471
0.030562 -0.023400 -0.035179
0.006423 -0.020968 0.055403
-0.040027 0.033354 -0.108684
0.031996 -0.021867 -0.010484
0.019192 0.015705 0.113155
0.004209 -0.020670 0.108967
-0.011073 0.028501 0.024892
-0.029908 0.035480 -0.107142
0.025741 -0.023030 0.076251
-0.042452 0.026338 -0.049518
-0.023460 -0.027169 -0.057297
0.030698 0.018343 0.101031
0.043804 -0.011035 -0.026031
-0.026679 0.029156 -0.007422
0.011223 -0.024401 0.000724
-0.030093 -0.022808 0.001570
0.044113 0.015201 -0.005712
0.026182 -0.018905 0.063991
-0.023631 0.018266 0.099556
-0.047070 -0.018031 -0.085440
0.033451 -0.014785 0.093808
0.024148 -0.023859 -0.018029
0.028245 -0.024378 -0.042862
0.033571 0.008564 0.108792
-0.040840 0.002198 0.030814
-0.005550 -0.021638 0.105517
-0.050322 0.012156 -0.086817
-0.009035 -0.022138 -0.111869
-0.021852 -0.024059 0.001715
-0.038773 -0.027060 -0.094423
-0.035672 -0.029846 -0.107426
-0.041524 0.026596 -0.043042
-0.044005 0.027631 -0.090456
-0.037240 -0.004373 0.045591
0.022097 -0.027237 -0.073085
-0.005009 -0.003416 0.134151
0.026016 -0.027833 -0.090649
0.035539 0.020150 0.067480
-0.026646 -0.025766 -0.041358
-0.033561 0.035607 -0.103475
-0.040438 0.030540 -0.091908
0.011127 -0.029244 -0.081508
-0.025156 -0.025276 -0.027993
-0.004938 0.011250 0.132428
-0.026498 -0.001558 0.073365
0.026542 -0.024447 -0.036885
0.000831 -0.012515 0.118275
-0.015563 0.022326 0.105234
-0.004847 -0.024459 -0.111874
-0.012481 0.003218 0.117594
0.019383 -0.022800 0.011875
0.013193 0.029158 0.072214
0.006892 -0.029159 -0.071354
-0.006107 0.034181 -0.069651
0.045801 0.000814 0.027961
0.017270 -0.025941 -0.037656
0.018563 0.003783 0.130667
-0.011857 -0.023944 0.018880
-0.022042 0.035452 -0.107857
-0.000438 -0.025518 -0.004657
-0.005391 -0.023180 0.030505
0.016258 -0.022398 0.021211
-0.032691 0.031730 -0.076031
0.030729 0.015373 0.106659
-0.029134 0.027338 0.017077
0.035327 0.024299 0.004366
-0.041959 -0.015664 -0.003381
0.007316 -0.025904 -0.016682
0.026039 -0.025634 -0.058370
-0.021496 -0.028295 -0.070040
-0.030256 -0.024943 -0.037510
0.037187 -0.014858 0.066897
-0.007079 0.024102 -0.111291
0.017337 0.024372 0.058349
-0.034488 -0.013571 -0.110321
0.045013 0.003326 -0.051877
0.026093 -0.025897 -0.062543
0.020348 0.024312 0.048951
0.044488 -0.003660 -0.055266
-0.015170 -0.026182 -0.023019
0.007937 0.034836 -0.106809
0.034106 -0.018782 0.037476
0.038983 -0.019167 -0.087931
0.003354 -0.022978 0.028373
0.012845 0.027156 0.093490
-0.010384 -0.002912 0.135264
0.019502 0.024184 0.055353
-0.051822 0.017832 -0.095232
-0.048389 0.010053 -0.035714
-0.036143 0.035145 -0.105494
-0.049332 0.003924 -0.040862
-0.017303 -0.023133 0.025718
-0.029108 -0.024407 -0.023568
0.027405 -0.018541 0.094239
-0.045479 -0.008339 -0.009272
0.016732 -0.004029 0.130867
0.017814 -0.010049 0.114477
-0.048221 0.009941 -0.033038
0.029489 -0.012726 0.105588
-0.032699 0.025798 0.022231
-0.026590 0.035195 -0.108185
0.035600 0.026034 -0.033741
0.020751 -0.019565 0.059444
0.000662 0.032713 -0.050921
-0.009789 0.008255 0.136877
0.003002 0.027580 0.028726
-0.041428 0.026081 -0.036237
-0.025893 0.021190 0.061302
-0.029304 -0.023625 -0.009964
0.000086 -0.025092 0.001742
0.010065 0.025002 0.063635
0.017467 -0.024293 -0.007661
0.041494 0.013862 -0.104128
0.023780 -0.023441 -0.008985
0.007954 -0.020934 0.053063
-0.042767 -0.000179 0.019786
-0.029499 -0.017090 0.054363
-0.032782 0.029779 -0.039935
-0.047550 -0.001515 -0.018984
0.044743 -0.008059 -0.018565
0.044494 -0.009391 -0.007718
-0.013456 -0.020257 0.090696
0.037706 -0.021284 -0.084393
0.029603 0.007646 -0.111070
0.019388 -0.025487 -0.033276
-0.030552 0.034132 -0.094775
-0.010992 -0.028297 -0.054833
-0.054095 0.008903 -0.110144
-0.017033 -0.007787 0.109777
0.024401 -0.024516 -0.030882
-0.044303 -0.020429 -0.062000
0.033480 -0.002093 0.109680
-0.047998 -0.016195 -0.088447
-0.012972 -0.020376 0.087118
-0.007757 -0.025753 -0.008664
0.025590 0.025512 -0.111892
-0.055976 0.000764 -0.098832
-0.009420 -0.022413 0.040808
-0.037294 -0.027185 -0.093999
0.023370 0.031960 -0.087426
-0.003060 -0.021637 0.050794
0.008826 -0.027771 -0.052421
-0.009696 -0.026574 -0.023798
0.039091 -0.018906 -0.016536
-0.039323 -0.022658 -0.039059
-0.034963 -0.030187 -0.103302
0.036381 -0.015385 0.068381
-0.050754 0.005738 -0.073764
-0.027076 0.032448 -0.069078
0.036751 0.026989 -0.101664
-0.020755 0.026459 0.056983
0.035443 -0.023178 -0.065268
0.000859 0.032255 -0.044197
-0.048768 0.025749 -0.110612
-0.020304 -0.023590 0.013886
0.010863 0.015935 0.125788
-0.005671 0.012176 0.135235
-0.009304 -0.028527 -0.057164
0.046106 0.001008 0.016798
-0.034359 0.025857 0.013689
0.043458 0.010609 0.053916
0.011026 -0.024067 0.081113
0.009603 -0.029417 -0.080953
-0.006543 -0.021389 0.060090
-0.016540 -0.028167 -0.110644
-0.033313 0.035209 -0.097669
-0.010606 0.005918 0.135528
0.005238 0.026667 -0.111783
0.024900 -0.020242 0.036610
0.036459 -0.022595 -0.070842
-0.009206 0.035781 -0.104905
-0.002155 -0.007861 -0.110311
0.012440 0.015589 0.117993
-0.008123 -0.029310 -0.067992
-0.023969 0.017858 0.098409
-0.009940 0.025159 0.105130
0.016244 -0.023562 0.071441
0.019535 -0.022980 0.008379
-0.040140 0.025903 -0.023321
-0.055275 0.009880 -0.108223
-0.033807 0.028202 -0.013467
-0.000760 0.032922 -0.052934
-0.003705 -0.030195 -0.089522
0.021912 -0.019880 0.048969
-0.011860 0.034626 -0.080660
-0.046281 0.023141 -0.072272
-0.044070 -0.019636 -0.051062
-0.012885 -0.020522 0.088661
-0.033454 -0.023193 -0.016816
0.003957 0.013015 0.134772
0.021524 -0.021930 0.019750
0.041913 -0.015381 -0.015347
-0.021999 -0.021642 0.042282
-0.049245 -0.012490 -0.085910
0.001597 -0.021177 0.057799
0.030711 0.024658 0.016261
-0.047214 0.031065 -0.098767
0.000494 0.017195 0.128794
0.042494 -0.006839 -0.088821
0.032601 -0.021229 -0.000384
0.031727 -0.019787 0.028250
0.016521 0.025240 0.039935
-0.023852 0.007074 0.106310
0.044114 -0.007190 -0.051056
0.025187 -0.019076 0.063465
0.025845 -0.025382 -0.053486
-0.029676 0.028666 -0.008382
0.039645 -0.017119 -0.097825
0.038282 0.025076 -0.064472
-0.017302 -0.026488 -0.034061
-0.028497 0.030503 -0.111359
-0.027440 0.033187 -0.110340
0.024164 0.002914 0.113935
0.017211 -0.020024 0.062735
0.037335 0.023466 0.004024
-0.010272 -0.026878 -0.030139
-0.048457 -0.005842 -0.036491
-0.001609 0.026327 0.053336
-0.002976 -0.010393 0.130803
0.044482 0.006321 -0.061594
-0.008819 0.011150 0.131466
0.002021 0.013004 0.132626
0.015027 -0.028254 -0.070677
-0.039569 0.001245 0.037225
0.040255 0.014030 -0.109303
-0.001482 0.029217 0.067762
-0.003332 -0.007826 0.138533
-0.019099 0.023358 0.070115
0.001541 -0.024269 0.076756
-0.026699 0.014926 0.100746
-0.052389 -0.007833 -0.094471
-0.000180 -0.021163 0.061818
0.031853 0.023008 0.041939
0.034708 0.028673 -0.095809
0.032791 -0.018706 0.044162
-0.036932 -0.023798 -0.111527
-0.029681 0.033954 -0.094288
-0.032538 -0.024454 -0.036699
-0.038179 0.033120 -0.095522
0.029842 -0.026564 -0.089229
-0.004650 -0.022148 0.100017
-0.047339 0.017617 -0.047443
0.018609 -0.029239 -0.106350
-0.045625 0.009513 -0.005980
0.007786 -0.027434 -0.044839
0.041308 0.013596 0.085378
0.027504 -0.024418 -0.040566
-0.055899 0.007133 -0.103073
-0.018275 0.034854 -0.108944
-0.031272 -0.027518 -0.087695
-0.023520 0.026163 0.050597
-0.003341 0.029135 0.011842
0.020182 0.024130 0.101715
-0.024357 -0.014674 0.066509
-0.023491 -0.010580 0.074899
0.000018 -0.025390 -0.003171
-0.044504 0.022793 -0.041339
-0.039711 0.029619 -0.069753
-0.031349 -0.022569 0.002460
-0.005990 0.011273 0.138314
0.029212 -0.021210 0.013548
0.027198 -0.026051 -0.070921
0.012640 -0.020622 0.052163
0.024134 -0.023819 -0.017058
-0.032126 -0.022750 -0.004030
0.003800 -0.012215 0.119442
-0.001505 -0.021740 0.049123
-0.022098 -0.027475 -0.059023
0.040413 -0.017477 -0.015646
-0.027295 -0.024110 -0.013259
0.042164 0.014410 0.052835
0.044755 0.012910 -0.021808
-0.032864 -0.007639 0.055127
-0.024932 -0.007084 0.074962
-0.012795 -0.025724 -0.111629
-0.050391 0.011682 -0.086273
0.004775 -0.026766 -0.111354
-0.020676 0.026277 0.059538
-0.019989 -0.026682 -0.041305
-0.024391 -0.030948 -0.104321
0.045706 0.008555 0.003155
-0.049565 -0.006886 -0.057681
0.033731 -0.024691 -0.083169
0.000138 0.024246 -0.111298
0.022091 -0.020323 0.040267
0.005197 -0.025628 -0.010470
-0.049264 -0.000747 -0.039256
0.011512 0.024867 0.064277
-0.003802 -0.022343 0.098882
-0.025673 -0.022490 0.020914
0.039786 0.023082 -0.064417
0.011107 -0.024607 -0.001799
-0.044006 -0.022840 -0.091264
0.018205 0.007175 0.130184
-0.037265 0.021590 0.022490
0.040974 0.017108 -0.103299
-0.034606 -0.022506 -0.009708
-0.010967 -0.000161 0.136085
-0.005403 -0.029643 -0.073020
-0.044535 0.020994 -0.029617
-0.029746 0.003551 0.093624
-0.030717 0.027521 0.009116
0.005932 0.018904 0.117002
-0.025007 0.032790 -0.069283
0.037759 0.025747 -0.074448
0.006495 0.019929 0.114311
-0.031071 -0.022115 0.011603
-0.012364 0.031092 -0.019500
0.041794 -0.015505 -0.036803
0.033431 0.023341 0.082230
0.042701 -0.004113 0.072032
0.001363 0.025714 0.061722
0.018335 -0.028684 -0.089131
-0.002028 0.030244 -0.007566
-0.034919 -0.026093 -0.073218
0.028691 0.016235 0.108844
-0.029407 0.001364 0.092760
-0.021019 -0.025926 -0.028920
-0.042980 -0.014034 -0.004375
0.026544 -0.025791 -0.062246
-0.046862 -0.012751 -0.039268
0.003271 -0.008504 0.133104
-0.036575 -0.026441 -0.083514
-0.011994 0.006356 0.117559
-0.016453 -0.025778 -0.018325
0.015072 0.020342 -0.110660
0.037460 -0.001969 -0.111453
0.014806 0.029085 -0.015895
-0.029922 0.030113 -0.035241
-0.020488 -0.022860 0.025534
0.043459 -0.008903 0.078542
-0.043738 -0.019435 -0.045168
0.032627 -0.010904 0.102749
-0.009138 -0.025394 -0.003447
-0.000558 -0.023655 0.084278
0.039530 0.023008 -0.086311
-0.025245 0.027830 0.017928
-0.050355 -0.007404 -0.083048
0.022481 -0.022706 0.006189
0.019789 -0.009290 0.113755
-0.047632 -0.015856 -0.074068
0.033987 -0.018854 0.036807
0.003345 -0.020969 0.062486
0.032177 0.008085 0.110297
-0.035291 -0.020851 0.007346
-0.021779 -0.022150 0.034558
-0.006285 0.028449 0.071899
-0.003272 0.029032 0.066040
-0.005131 0.026057 0.059627
-0.048343 0.000173 -0.026378
0.034269 0.010577 -0.111937
0.044558 0.011663 0.028637
-0.035373 0.027235 -0.006387
0.032256 0.028278 -0.055476
-0.031129 0.003608 0.100259
0.038301 0.019429 -0.110188
-0.017504 -0.004450 0.110677
0.019199 0.004007 0.125885
-0.004910 0.014186 0.120138
-0.020393 0.006676 0.108926
-0.024721 -0.029394 -0.093651
-0.015705 -0.026506 -0.030338
0.032433 -0.013115 0.099167
-0.044879 -0.018207 -0.048305
0.038623 -0.016371 0.076592
0.026941 0.022243 -0.111440
0.011969 0.023491 0.110019
-0.019394 0.035645 -0.107290
-0.026964 0.022604 -0.110883
-0.002322 -0.021621 0.062246
0.011927 -0.018975 0.110070
0.016391 -0.028093 -0.071602
0.040421 0.022001 -0.065559
-0.026717 -0.006894 0.091335
0.003320 -0.022084 0.040368
0.016996 0.010375 0.129081
0.031936 0.022128 0.069339
0.045424 0.008923 0.019772
0.036465 -0.022637 -0.071957
-0.026402 -0.007641 0.091337
0.018325 -0.022457 0.088089
0.016816 -0.023889 0.072174
-0.028859 0.008350 0.102621
0.031997 -0.019984 0.024115
-0.006537 -0.021644 0.060843
-0.016663 -0.018517 0.075768
0.035953 -0.011126 -0.111728
0.045366 0.010160 0.006429
-0.043533 0.024518 -0.043862
0.006052 0.025037 -0.111441
0.014454 -0.001366 0.136003
-0.037240 0.026026 -0.003907
0.028162 0.023139 0.069191
0.043753 -0.010873 -0.031897
-0.005129 0.026725 -0.111748
-0.011092 -0.022072 0.045896
-0.021963 -0.016102 0.069218
-0.001176 0.035290 -0.107112
0.039098 0.016573 0.069938
0.021565 -0.024099 -0.013778
-0.008178 -0.023782 0.066430
0.023072 -0.019518 0.054455
-0.008827 0.031253 -0.021691
0.043347 -0.011221 0.024185
-0.027928 -0.017371 0.056971
-0.001445 -0.031122 -0.098695
0.033454 0.015222 0.101376
-0.036258 -0.025055 -0.060866
0.023595 0.025595 0.088327
-0.015787 0.023088 0.104036
-0.032932 0.027970 -0.006195
0.021567 -0.027477 -0.076432
0.006324 -0.029862 -0.089822
0.010569 -0.022426 0.027840
0.044574 -0.005213 0.040294
-0.017432 -0.024518 0.002015
0.012573 -0.022801 0.092288
-0.008449 -0.021281 0.103411
0.008985 -0.025386 -0.010788
-0.045996 -0.027052 -0.103313
-0.032887 -0.030201 -0.107377
0.005822 0.027329 0.028433
0.001102 -0.022920 0.096939
-0.037440 0.022717 0.016675
-0.031342 -0.027953 -0.110389
0.032453 -0.010945 -0.111862
-0.022505 -0.014627 0.101722
0.043570 -0.008334 0.044551
-0.054340 0.015632 -0.108421
0.012801 -0.026984 -0.045060
0.020903 -0.023951 0.075693
-0.043493 -0.002068 0.014174
-0.022440 -0.028200 -0.070652
-0.003826 -0.027558 -0.039255
0.043539 -0.004778 0.056074
-0.005580 0.013901 0.120769
0.030821 -0.003530 0.110858
-0.022938 -0.022631 0.025156
0.041804 -0.011703 0.076628
-0.043222 -0.025829 -0.110361
0.035924 -0.017864 0.081788
0.039427 0.019960 0.038623
-0.020016 -0.031227 -0.099055
-0.007961 0.030165 -0.003123
-0.021752 -0.029122 -0.088703
-0.044373 -0.018250 -0.111781
0.043978 0.003637 -0.074520
0.005789 0.027808 0.093049
0.043106 0.003877 0.066877
-0.041899 -0.024120 -0.082235
-0.014525 -0.021342 0.056365
0.042450 -0.007808 -0.086992
0.030367 -0.018460 0.069488
-0.029843 -0.022521 0.008112
-0.029295 0.035893 -0.103812
-0.003916 0.034877 -0.084389
0.036163 -0.022943 -0.104693
0.038421 -0.015638 0.051339
-0.010839 -0.026891 -0.031275
0.024092 -0.014782 0.109667
-0.041708 0.011666 0.019530
0.029447 -0.025852 -0.077973
-0.015605 -0.019238 0.076422
-0.039113 -0.026808 -0.110510
0.029924 -0.023139 -0.026692
0.046047 -0.000530 0.003732
-0.036031 -0.021490 -0.003488
-0.035025 0.026787 0.000932
-0.039208 -0.027624 -0.095404
-0.021999 0.031254 -0.034465
-0.036562 -0.023265 -0.031507
-0.027437 0.005262 0.104085
-0.028700 -0.022447 0.012659
-0.017571 -0.025836 -0.021211
-0.041765 0.023078 -0.111449
0.038469 0.011633 0.094590
0.027666 -0.018256 -0.111744
0.033402 -0.023455 -0.049606
-0.033436 0.026012 0.016833
-0.040710 0.000214 -0.110888
0.036107 0.027624 -0.100060
-0.034449 -0.022848 -0.111467
0.008043 -0.021477 0.107962
-0.002119 0.027209 0.040413
0.015845 0.000239 0.131300
-0.015290 -0.019316 0.092761
0.022849 -0.022433 0.009883
-0.038796 -0.016767 0.013332
0.027519 -0.025892 -0.069309
0.043917 -0.008618 -0.048192
-0.018213 0.031876 -0.039206
-0.013218 -0.019902 0.100628
0.009210 0.016364 0.130324
-0.015457 0.029515 0.005130
0.039636 -0.018805 -0.043284
0.039788 0.015984 0.071000
-0.019354 -0.014681 0.081908
0.036771 0.022687 0.024152
0.023212 -0.024378 -0.024335
-0.044200 -0.011444 -0.005934
-0.046366 -0.023204 -0.110825
-0.051243 -0.021609 -0.102201
0.024668 -0.019201 0.057741
-0.025523 0.028067 0.013161
-0.031359 0.022567 -0.110913
-0.017762 -0.029161 -0.109813
0.032093 -0.024648 -0.108870
-0.012759 0.032137 -0.038321
0.012118 0.025463 0.046694
0.043811 -0.009372 0.032191
0.018484 -0.025373 -0.028394
-0.011987 0.034764 -0.084718
-0.028102 0.000094 0.090881
-0.048348 -0.023532 -0.096707
-0.040531 -0.010948 0.020923
-0.055482 0.003095 -0.108481
-0.023014 -0.009357 0.081881
0.014408 0.029092 -0.015283
0.037167 -0.017165 -0.110322
-0.048440 0.008845 -0.034044
-0.022582 -0.019088 0.063119
0.027448 0.020107 0.102877
0.003308 -0.021246 0.053902
0.004886 -0.010950 0.137327
0.016520 -0.006413 0.129463
0.013325 -0.011388 0.117425
0.045529 -0.002559 -0.022030
-0.023825 0.029747 -0.011248
0.033212 0.026720 -0.031620
-0.050574 0.018647 -0.094230
-0.024023 0.033397 -0.078311
-0.009950 -0.018270 0.107434
-0.029954 0.030849 -0.048990
0.019344 -0.020285 -0.111781
0.042076 -0.014246 0.013124
0.006392 -0.029778 -0.086948
-0.020056 -0.022649 0.029206
-0.009783 0.008711 0.128418
-0.035105 -0.022850 -0.017425
-0.048878 -0.013767 -0.087808
0.004226 0.025736 -0.111585
-0.028787 0.001193 0.091788
0.011062 -0.021718 0.103848
0.043200 -0.002086 0.063523
-0.042811 -0.003545 -0.110978
0.000013 -0.024273 0.014041
-0.004694 0.026930 0.046207
-0.000207 -0.022608 0.036135
-0.049010 0.001638 -0.034403
0.014622 -0.020202 -0.111598
-0.034336 0.030095 -0.052368
-0.032420 -0.023001 -0.009992
-0.002263 -0.023830 0.020927
0.035166 -0.023849 -0.084350
-0.008912 -0.028476 -0.056440
-0.046521 -0.006721 -0.015924
0.000898 0.017294 0.118127
0.030182 -0.020231 0.025697
0.004222 -0.028273 -0.054731
0.001223 -0.027892 -0.047083
0.025981 -0.026273 -0.069198
-0.031545 0.035765 -0.101553
-0.036755 -0.007326 0.045287
0.000505 0.025390 -0.111509
-0.005994 0.030840 -0.015185
0.032290 -0.025592 -0.104850
-0.007487 0.012405 0.133006
0.025822 0.023854 0.042024
-0.029114 0.027754 0.009447
-0.013462 -0.020270 0.090158
0.043463 -0.004506 -0.076499
0.037656 -0.021192 -0.095713
0.044706 -0.006984 0.026614
0.007793 0.031781 -0.111097
0.008094 -0.027224 -0.041213
-0.040962 0.016036 0.017088
0.000645 0.029103 0.008515
0.003457 -0.008634 0.132746
0.046006 -0.001007 0.002072
0.030668 -0.024244 -0.051757
0.002096 -0.024890 0.003357
-0.014677 0.033338 -0.060592
-0.032971 0.026509 0.013887
0.018866 0.030759 -0.052661
0.039953 -0.015246 0.040158
-0.002572 -0.025530 -0.004435
0.018247 0.027489 0.083749
0.013712 -0.023912 0.004583
0.041232 0.013522 0.064840
-0.023312 -0.021779 0.037351
0.010327 -0.020972 0.048997
-0.028426 0.032093 -0.066725
-0.051770 0.002039 -0.092577
0.032494 0.024013 0.081605
0.035863 0.020289 0.086442
0.017459 0.009378 0.120929
0.043205 -0.012431 0.007637
-0.022515 0.031441 -0.038740
0.042057 0.016459 0.078056
-0.022943 -0.024064 -0.000884
0.006270 0.033742 -0.109511
0.016446 0.014367 0.116049
-0.028358 0.026944 -0.111502
0.016308 0.024356 0.065393
0.045409 -0.004256 0.022471
-0.027597 -0.019522 0.052377
0.043564 -0.000422 -0.080103
-0.008180 0.036024 -0.094780
0.029627 -0.022603 -0.013789
-0.006152 -0.021501 0.055671
0.036277 0.025280 -0.023297
-0.046843 0.004453 -0.111094
-0.040381 -0.019061 -0.010510
-0.003265 0.029099 0.067274
0.014458 0.010534 0.137163
0.033159 0.024852 0.004572
-0.032508 0.029583 -0.035112
-0.048839 -0.000933 -0.033440
0.013363 0.030315 -0.111476
-0.029553 -0.028780 -0.109899
0.041273 0.012685 0.066905
0.024794 0.031485 -0.083950
0.017679 0.000499 0.137649
-0.001298 0.026034 0.061946
-0.043417 0.021165 -0.019215
0.014765 0.024502 0.062293
0.000976 -0.009555 0.131243
0.008675 0.015478 0.119214
0.031272 -0.013436 0.100770
0.043337 0.014538 -0.061084
0.033901 -0.018700 0.040047
-0.024410 0.011008 0.078944
0.041222 -0.001644 -0.108520
-0.038635 -0.016714 0.014535
0.018264 0.024032 0.105817
-0.029222 -0.025323 -0.041182
-0.026929 0.030385 -0.030350
-0.037150 -0.027681 -0.094785
0.044858 0.009228 -0.044977
0.045079 -0.001652 0.042374
0.001795 -0.028640 -0.058539
-0.019251 0.025596 0.065233
0.030355 0.029230 -0.063636
-0.005515 -0.030168 -0.087456
0.042711 0.010685 0.060989
0.029849 -0.018945 0.048705
0.010987 -0.026086 -0.025969
0.035813 0.025613 -0.026504
-0.020302 -0.024365 -0.000438
0.041664 -0.015881 -0.026102
0.045423 0.008896 -0.024863
-0.017739 -0.029461 -0.083214
0.044611 0.005477 0.049775
0.045022 0.011310 0.012304
0.012776 0.024727 0.063012
-0.026879 -0.024659 -0.021581
0.031521 -0.022521 -0.021891
-0.032928 -0.026553 -0.074367
-0.002103 -0.031302 -0.095229
0.014487 0.032507 -0.068616
0.037430 0.026031 -0.069513
-0.049547 -0.001731 -0.111595
-0.019596 -0.016755 0.095261
0.028291 0.025010 0.072882
0.019337 -0.022379 0.087334
-0.036286 0.028372 -0.027806
-0.051194 -0.001198 -0.088627
-0.006513 0.028086 0.063212
0.035067 0.028428 -0.105809
0.033315 0.029478 -0.094494
-0.033755 0.019250 0.046674
0.042083 -0.010646 0.051998
0.033681 -0.018727 0.040663
0.043682 -0.000333 0.060550
0.028327 0.025071 0.083718
0.034561 -0.023447 -0.059223
0.009595 0.028899 0.069996
0.022125 -0.021009 0.030365
-0.001995 -0.010478 0.119468
-0.019734 0.027710 -0.111657
0.043787 0.005743 0.073962
-0.032915 -0.023976 -0.028457
-0.003802 -0.005982 0.136352
-0.005221 0.028449 0.074038
0.011228 -0.023223 0.068984
-0.010792 0.028475 0.025363
-0.025262 -0.002769 0.079673
-0.046017 -0.016457 -0.049448
0.030297 0.030642 -0.107390
0.039820 0.011063 -0.110287
-0.028292 0.026592 0.031205
0.003892 -0.025657 -0.009683
0.032133 -0.013808 0.098355
-0.005858 0.007840 0.138342
-0.021536 0.036081 -0.102279
0.016777 -0.024057 -0.002615
-0.044417 -0.025967 -0.109861
0.000147 -0.031241 -0.095922
0.033347 -0.000982 0.110028
-0.027868 -0.004048 0.067731
0.015317 -0.005295 0.137361
-0.047161 -0.003510 -0.017202
0.034133 -0.020318 0.010887
-0.011211 -0.001592 0.118018
0.026963 -0.020692 0.026025
-0.024502 -0.021982 0.031195
-0.034498 0.018145 0.045922
0.044695 0.013403 -0.017329
-0.005056 0.028512 0.073453
0.015200 0.006140 0.136544
0.000436 0.015543 0.138292
-0.026988 -0.024838 -0.024900
0.045128 0.011581 0.001954
0.006550 -0.024552 0.004542
0.002711 0.027935 0.091086
0.025716 -0.014627 0.108476
0.044018 0.000563 0.057491
-0.032249 0.020049 0.050721
-0.051881 0.022932 -0.097346
-0.026381 -0.024589 -0.018760
0.035001 -0.023793 -0.076994
0.020081 -0.027362 -0.069039
-0.047071 -0.016242 -0.065407
0.028959 0.026405 -0.111568
0.009809 -0.028209 -0.060324
0.013257 -0.024352 0.077154
0.008074 -0.023838 0.085087
-0.006774 0.031503 -0.111451
0.042746 0.016317 0.028915
0.039582 0.023208 -0.075060
-0.029280 -0.025284 -0.040699
0.018713 -0.023781 -0.002239
-0.022745 -0.014300 0.096242
-0.011849 -0.023148 0.030248
0.013390 -0.022708 0.092204
0.022715 -0.022684 0.006071
0.013482 -0.029960 -0.104889
0.045854 0.000198 0.025268
0.040095 -0.000532 -0.110081
0.007126 0.025304 0.060053
-0.025702 -0.001531 0.105322
-0.043014 -0.018625 -0.030004
0.001930 0.025418 0.108561
0.040801 0.018839 -0.097623
-0.018338 -0.025459 -0.016137
-0.028359 0.029570 -0.019901
-0.024743 0.017034 0.098141
-0.026724 0.033498 -0.089062
-0.048771 -0.003451 -0.035839
0.021411 -0.027756 -0.082032
0.044068 0.014521 -0.037123
0.037808 0.023066 0.007056
-0.013829 -0.019558 0.084438
-0.007549 -0.024392 0.013794
0.031011 -0.011896 -0.111579
-0.024055 0.025857 0.052844
0.042438 -0.007480 0.061643
0.041386 0.020232 -0.002266
0.036811 0.024870 -0.020355
0.010964 0.017299 0.117508
0.044207 0.010168 0.043965
-0.013174 -0.026315 -0.024093
0.042484 0.018715 -0.006053
0.007546 -0.024180 0.008648
-0.030692 -0.012064 0.056887
-0.017999 0.034723 -0.109122
-0.006537 0.030782 -0.014023
-0.025497 0.029941 -0.018559
0.025922 0.024463 0.070507
-0.027423 -0.021570 0.032214
0.035991 0.022069 0.039414
0.020112 0.021471 0.109684
-0.033512 -0.026514 -0.075908
-0.025552 0.025064 0.054726
0.019795 -0.023493 -0.000377
0.042032 0.017003 0.035632
-0.031300 0.029731 -0.033570
-0.016976 -0.026430 -0.029686
-0.049793 -0.022028 -0.097102
0.017016 0.025244 0.101270
0.038550 -0.020163 -0.077602
-0.014569 0.010278 0.112582
-0.032944 0.011735 0.054928
-0.033496 0.029573 -0.038763
-0.011766 0.025818 0.081203
0.006968 -0.021271 0.047972
-0.008248 0.011207 0.123379
0.002396 0.026401 0.047489
-0.005037 -0.021332 0.060458
-0.031853 -0.025347 -0.111244
0.002441 -0.025504 -0.006317
-0.024024 -0.023141 0.014432
-0.046728 0.022858 -0.078641
-0.030446 -0.012383 0.057121
0.037972 -0.020622 -0.097434
-0.055481 -0.007176 -0.107056
0.043395 0.014126 0.036851
0.000126 0.013991 0.137091
0.020231 -0.027251 -0.067527
0.004592 0.034550 -0.085315
0.035888 0.027830 -0.097909
-0.006304 0.031578 -0.027786
-0.021303 0.030526 -0.111453
-0.045686 0.006816 -0.111175
0.036771 -0.022396 -0.078365
-0.031697 -0.023228 -0.011379
0.016884 -0.029043 -0.089712
0.041330 0.017078 0.045161
-0.007982 -0.025426 -0.002921
0.013648 -0.028580 -0.073464
-0.013908 -0.021331 0.073628
0.043120 0.016313 0.019133
-0.050664 0.003189 -0.111270
-0.028575 0.003009 0.091531
-0.046647 0.005172 -0.010481
-0.052170 0.011645 -0.111246
-0.014145 -0.021461 0.055178
0.009199 -0.023168 0.091989
-0.031059 0.032557 -0.085334
0.019960 0.026209 0.090175
0.021770 0.031232 -0.110031
0.000582 -0.011799 0.130852
-0.024339 -0.025195 -0.024420
0.025991 -0.027738 -0.089149
-0.028298 -0.021621 0.028620
0.004115 0.001865 0.138470
0.012253 0.029926 -0.111625
0.037672 -0.015010 0.062587
0.005381 -0.026055 -0.016978
0.038119 0.021653 0.029073
-0.027423 0.026640 0.033340
0.024706 0.027441 -0.014096
-0.034189 0.024150 0.026627
-0.032963 0.030921 -0.062374
0.034739 0.023719 0.018332
-0.023843 0.017166 0.070729
0.001930 0.012783 0.134660
-0.006208 -0.014377 0.112279
-0.049253 -0.020617 -0.095685
0.000236 -0.012143 0.120220
0.042595 -0.009342 0.052540
0.003037 -0.023460 0.090407
-0.053945 -0.011268 -0.097104
0.023928 -0.019477 0.052009
0.044874 -0.007286 -0.020772
-0.044359 0.032915 -0.100687
-0.022433 0.031115 -0.032554
-0.038499 0.030568 -0.079195
-0.022224 -0.023853 0.004863
0.033480 -0.006960 0.106244
0.025726 -0.023202 -0.012526
-0.014387 0.026303 0.055902
0.041358 -0.008600 0.066650
-0.019390 -0.029490 -0.090922
0.045342 0.008546 0.025208
0.038671 -0.012138 -0.110393
0.012872 0.014435 0.130267
0.021374 -0.025282 -0.035489
0.004584 -0.025181 -0.002707
-0.018366 -0.022113 0.040806
-0.030318 -0.023808 -0.015797
-0.002434 -0.022773 -0.111952
-0.008198 0.034716 -0.080265
0.028163 0.006291 0.111957
-0.010989 -0.001605 0.135010
0.011102 -0.024346 0.001977
0.012767 0.034832 -0.093031
0.045625 0.001444 -0.030608
0.001659 0.027551 -0.111870
-0.010676 0.025342 0.102848
-0.022938 0.032688 -0.062804
0.007247 0.029794 -0.012384
0.045048 0.007816 -0.043835
-0.032154 -0.024496 -0.035923
-0.003502 0.013967 0.137962
0.016916 -0.005193 0.130464
-0.021047 0.033258 -0.068613
-0.032521 0.034755 -0.096290
-0.019796 -0.028447 -0.068843
-0.031968 -0.016854 0.047509
0.030567 -0.018119 0.065190
-0.002001 0.015236 0.130730
0.015140 -0.002489 0.131266
0.016055 -0.026882 -0.050558
-0.005857 -0.022861 0.085259
-0.007881 0.035882 -0.094231
-0.025061 0.012680 0.089470
0.010760 -0.011289 0.118218
0.041292 0.019369 0.017530
-0.005666 -0.022993 0.033354
-0.050054 0.006573 -0.056898
-0.026645 -0.024511 -0.111302
-0.019558 -0.027092 -0.047934
-0.018460 0.028613 0.017622
-0.042661 -0.023918 -0.088453
-0.011211 0.002274 0.129847
-0.025606 -0.004255 0.087246
0.036953 -0.022080 -0.096251
0.024799 -0.018968 0.064654
-0.002730 -0.023864 0.077385
-0.034036 0.027249 -0.111697
0.030753 -0.023100 -0.029855
-0.032813 0.034329 -0.095687
0.012484 0.026809 0.023899
-0.004976 0.035907 -0.094249
0.017451 0.026059 0.024964
0.001482 0.028174 0.022040
0.015805 -0.029985 -0.092260
-0.028856 0.021268 0.056186
-0.013806 -0.022486 0.037983
-0.028033 -0.030232 -0.096202
-0.011152 0.003190 0.124170
-0.034439 0.022151 -0.110913
0.039108 -0.014249 0.058411
0.044938 -0.003202 0.039550
-0.014506 0.033620 -0.064849
0.023954 -0.024694 -0.032831
-0.018065 0.032561 -0.051530
0.000400 0.012434 0.133074
0.014637 0.006144 0.131931
-0.023583 0.026085 0.051585
0.016427 -0.000205 -0.110518
0.041491 -0.008408 0.066286
-0.043472 0.004936 0.014369
0.005151 -0.013041 0.124218
0.008136 -0.027404 -0.044787
-0.028836 0.030747 -0.043164
-0.042939 0.025349 -0.044991
-0.034119 -0.025003 -0.051816
-0.024844 0.012856 0.104286
0.042928 0.014829 0.039831
0.044786 -0.002402 -0.050133
0.031831 -0.024185 -0.109614
0.017707 0.005503 0.119316
0.031614 -0.019731 0.029550
0.006643 0.034614 -0.089218
0.002709 0.011324 0.138431
0.001527 -0.028185 -0.051037
0.046059 0.004171 0.018903
