0.027942 -0.016688 -0.032519
-0.028034 -0.018321 -0.002023
0.031378 -0.009270 -0.007158
0.014878 -0.018694 -0.056460
0.031314 -0.009811 0.040988
-0.000925 -0.024242 -0.056492
0.012774 -0.027854 -0.008674
0.025973 -0.019322 -0.048406
-0.007870 -0.017740 0.037090
0.006672 -0.030446 0.031013
0.012804 -0.025483 0.037057
-0.024844 -0.017456 -0.059074
-0.011055 0.026350 0.036771
0.002549 0.011885 0.037914
0.015163 0.030830 0.009597
-0.009714 0.033621 0.012785
0.021005 -0.023708 0.032307
0.006688 -0.021944 0.037112
-0.010051 -0.026754 0.037251
0.003604 -0.029384 -0.006949
0.010924 0.015628 0.038872
-0.033365 -0.001007 0.029074
0.017381 -0.016929 0.036706
-0.022817 0.009945 -0.056658
-0.027410 0.020479 -0.037966
0.022285 0.025429 -0.038875
0.028898 0.005057 -0.057992
-0.013102 -0.028329 0.016057
-0.026809 0.006863 0.036902
-0.013562 -0.028210 0.023509
0.014458 -0.027271 -0.012620
0.001590 -0.015580 0.036469
-0.009218 0.033777 0.010018
-0.012529 0.012337 0.036572
-0.032662 0.005954 0.039019
-0.017093 -0.025406 0.037151
0.027000 -0.017482 0.029353
0.021629 -0.005365 0.036916
0.003836 0.032514 0.036398
-0.032272 0.009241 0.022972
0.002138 -0.029274 -0.005760
0.018298 -0.025872 0.001597
-0.012604 0.023474 0.037255
0.004735 -0.022915 0.037050
0.003449 -0.029184 -0.040386
0.031449 0.007568 -0.057333
-0.020363 -0.024540 0.035197
0.029076 0.015554 -0.023048
-0.021319 0.010442 -0.055467
0.015238 0.030757 0.024429
0.022754 -0.000469 0.038085
-0.001870 0.017682 0.036467
0.017072 -0.005111 0.036622
0.030155 -0.012227 0.036542
-0.006258 0.013463 0.036584
0.014115 0.005568 0.037192
0.016823 0.022484 -0.055864
0.010858 -0.029514 0.037363
0.016375 -0.014972 -0.056202
-0.001575 0.015949 0.036528
0.018037 -0.025954 -0.006534
0.010535 0.008419 -0.055045
0.002988 -0.003704 0.035985
-0.016069 -0.015806 0.037333
-0.024172 -0.010269 0.036916
0.002614 -0.008201 0.038393
-0.006933 -0.016119 -0.055849
-0.029671 -0.013180 -0.054492
-0.033008 0.004611 -0.022960
0.021891 0.014436 0.037379
-0.032849 -0.005256 -0.003599
-0.011549 0.032951 0.019666
0.007498 -0.028888 -0.007532
0.015250 -0.027216 -0.052669
0.028393 -0.016514 -0.005598
0.002405 -0.011629 0.036548
-0.003302 -0.030965 0.029130
0.006437 -0.030535 0.035007
-0.030595 -0.012914 0.034477
-0.018304 -0.026469 0.002699
0.021626 -0.023860 -0.045170
-0.029338 0.017320 0.020297
0.021156 -0.024647 -0.027491
-0.005102 0.002677 0.036467
-0.014409 0.027602 0.037161
-0.008048 -0.028762 -0.021696
0.023643 0.024145 0.026774
-0.006205 0.022533 0.036944
-0.033130 -0.002581 -0.021659
0.000447 0.032572 -0.059189
0.029975 0.013611 -0.041267
-0.032812 0.005747 0.013025
-0.009407 -0.018073 0.037106
-0.005823 -0.029781 0.037375
0.017013 0.017657 0.036969
0.027610 0.009343 0.037955
0.031782 0.008859 0.029175
-0.021941 -0.024852 -0.024540
0.012698 -0.028765 0.036807
0.007969 -0.025517 0.036937
0.011545 0.032745 -0.001264
-0.033162 -0.004515 0.023451
0.030129 -0.012256 0.039584
0.016666 0.014570 -0.054946
-0.032301 -0.008387 0.001505
-0.029993 0.011146 0.036551
-0.013791 -0.028251 0.030950
-0.033381 0.000436 -0.048951
0.013574 0.030998 0.040931
0.008647 -0.025188 0.036920
-0.011214 -0.023703 -0.055703
-0.032521 0.007155 0.015099
0.010219 -0.027971 -0.017977
0.002071 -0.029447 -0.001690
0.017063 -0.022158 -0.058616
-0.011977 -0.028482 -0.005041
0.006603 0.014514 0.039236
0.032284 0.003597 -0.004875
-0.031337 -0.011291 0.022963
0.032538 -0.003345 0.036168
0.006312 -0.011753 -0.055037
0.032307 0.005457 0.012416
-0.017763 -0.011356 -0.055149
0.012138 0.007510 0.038422
-0.024005 0.002198 -0.056354
0.003589 -0.022184 0.037149
-0.027789 -0.011356 0.037222
-0.020322 0.027661 -0.009347
0.002715 -0.006917 0.038340
0.013978 0.032210 0.040892
0.001142 -0.028637 -0.015166
0.003590 -0.028902 -0.011765
0.013635 -0.026490 -0.032651
0.031318 -0.008698 -0.023098
-0.011801 0.032364 -0.056294
0.006885 -0.022196 0.037049
0.026029 -0.010811 -0.058067
0.024237 0.009349 0.036887
0.010579 -0.026167 -0.058822
0.026520 -0.014271 -0.058455
-0.033190 -0.002449 -0.053546
0.030014 0.014302 0.028438
-0.024728 0.005265 0.037380
-0.012370 0.022231 -0.056530
-0.015990 -0.016064 0.037326
-0.032637 -0.000853 0.040195
0.018461 0.000259 0.037499
0.009646 -0.028879 -0.046766
0.027056 0.019774 0.026768
0.032180 -0.005476 0.014381
-0.013796 0.026552 0.036971
-0.018179 0.026508 0.036833
0.021575 0.009555 0.037243
-0.001463 -0.029839 -0.041009
0.022192 0.025503 -0.015772
0.031283 0.010669 0.029923
-0.011468 -0.000414 0.035997
0.000293 0.035090 0.010050
-0.029629 0.011535 -0.059012
0.001194 -0.029887 -0.043223
0.026423 0.019482 -0.057068
0.004666 -0.023957 0.036650
0.008565 -0.026126 0.037044
0.003937 -0.030390 -0.049867
0.028093 0.017974 -0.008997
0.001571 0.014751 0.036910
-0.002408 0.035189 0.039895
-0.010469 0.014066 0.036604
-0.012379 -0.028083 -0.014235
-0.001582 0.021388 0.036861
0.026964 0.007166 -0.055393
-0.010480 0.030935 -0.059060
0.031948 -0.005602 -0.017450
-0.029691 -0.015328 0.012969
-0.008974 0.033624 -0.047566
0.013263 -0.021626 0.036740
0.011449 -0.013143 0.036706
-0.014924 -0.027768 0.012537
0.031958 -0.005620 -0.017112
0.030229 0.013198 0.011116
-0.003858 0.023672 -0.055274
0.019079 -0.025339 0.009386
-0.023878 -0.022610 -0.040268
0.030782 0.011938 0.017909
-0.018227 0.002292 -0.055376
0.030823 0.011131 -0.013634
-0.032376 0.007869 -0.007866
0.009236 -0.004101 0.037513
-0.025764 0.001772 0.037095
-0.033092 0.000623 -0.003333
-0.023509 0.011769 0.037202
-0.029647 0.016375 0.020969
-0.020548 0.023842 0.037187
0.010035 0.033182 0.033563
0.020054 0.028003 0.041922
-0.015641 -0.005958 -0.055255
-0.025676 0.001190 0.037152
0.027322 -0.000319 -0.055010
0.024463 -0.021071 0.012939
-0.029756 -0.014799 0.022513
-0.005375 0.023548 -0.055363
0.032374 0.003353 -0.002475
0.009444 0.008496 0.037763
0.013126 -0.014858 -0.054826
0.028117 0.011863 0.036878
-0.026726 -0.019206 -0.044035
-0.005557 -0.016958 0.037024
-0.023281 -0.014411 -0.055752
0.027196 0.019718 0.032434
-0.017845 -0.005522 0.036825
-0.030150 0.015460 0.006705
-0.027543 0.020302 -0.017947
0.001697 -0.021574 -0.056158
0.018270 0.029014 0.037697
0.030745 -0.009745 0.038242
0.009589 -0.002196 0.036586
-0.001753 -0.030816 0.021225
-0.031117 0.004510 0.036730
0.007045 0.030069 0.037072
0.029021 -0.000833 0.036855
0.004690 -0.015805 -0.055486
0.019031 0.028316 0.025123
0.011382 0.003762 0.037904
0.027266 0.019137 -0.015546
-0.033290 0.001561 -0.037085
0.011775 -0.028545 -0.050764
-0.005636 0.034107 -0.056010
0.010174 0.033224 0.031385
-0.022056 0.018857 -0.055791
0.002530 0.033979 0.041263
0.019291 0.028074 0.006978
0.005048 0.015335 0.038716
-0.010141 0.005763 0.036030
0.028171 0.011634 0.036902
-0.019455 0.014792 0.037200
-0.027937 0.019685 0.034726
0.003283 -0.012500 0.036479
-0.004153 -0.030577 -0.053518
0.032489 0.003667 0.006923
0.004136 -0.008879 0.038377
0.028879 -0.014152 0.036685
0.001307 -0.031583 0.037908
-0.021608 -0.024728 -0.037322
0.032850 -0.000719 0.008666
0.009374 0.016324 0.036705
0.032479 0.002632 0.007098
-0.014367 -0.010599 0.036749
0.030041 0.014238 0.038130
0.032222 0.009703 0.039610
-0.025031 -0.021864 -0.000181
-0.002795 -0.000358 0.036183
0.032114 0.005300 -0.016970
0.014546 -0.027659 0.035590
-0.009348 0.009650 0.036621
-0.031439 0.012076 -0.021302
-0.032974 -0.005760 0.022554
0.019306 0.026560 0.036632
-0.022144 -0.023922 0.010634
-0.004677 0.034687 -0.003718
-0.026012 0.022378 0.014055
-0.003029 -0.030321 0.015307
0.032672 0.000778 0.015492
-0.012183 0.025738 0.036798
-0.011953 0.022814 -0.056708
-0.022241 0.026334 -0.005213
0.026938 -0.017943 -0.049444
0.014868 0.017715 -0.055185
0.010672 0.032914 0.023733
0.002531 -0.027525 -0.029544
0.001625 -0.028433 0.037072
-0.017786 -0.012336 -0.055294
-0.028079 0.019340 -0.027682
0.030920 0.010863 -0.037193
-0.028959 0.017834 -0.010184
0.031577 -0.007604 -0.025457
-0.018185 -0.026101 0.022282
-0.019814 0.028226 0.022374
0.003750 0.013511 0.039255
0.003803 0.003196 0.036084
-0.001957 0.005983 0.036109
-0.025052 0.023313 0.019233
-0.000986 -0.021047 0.037064
-0.016172 -0.027214 0.032217
-0.013866 0.019290 -0.055150
0.030347 0.013139 0.021856
0.021009 0.018802 -0.055636
-0.014658 0.031477 -0.045479
-0.028600 0.001079 -0.055813
0.012984 -0.015496 0.036852
0.016412 0.020718 0.036811
0.013387 0.003579 0.038496
0.005620 -0.029441 0.001912
0.028135 -0.016479 0.006034
0.032567 0.000681 0.001615
-0.018273 -0.026409 -0.049896
-0.032125 -0.007380 -0.053612
-0.031269 0.012361 -0.009139
-0.012309 0.006700 0.036481
0.017201 0.029553 -0.027684
-0.031987 -0.008781 -0.009347
0.022949 0.024729 -0.033070
0.032136 0.006319 0.016925
0.022390 -0.001356 0.036619
-0.009742 0.033487 0.036963
0.018347 -0.025613 0.036691
0.031496 -0.004271 -0.056994
-0.033058 0.004958 0.020870
-0.000448 0.002244 0.036179
0.032187 -0.005450 0.000348
0.003277 -0.030485 -0.050644
-0.021666 -0.024805 -0.007414
-0.018142 -0.023753 0.036765
-0.004180 -0.000653 0.036727
-0.024062 0.024443 0.020169
-0.013924 -0.002540 0.035944
0.016354 0.030349 0.027332
0.031921 -0.007856 0.039778
0.028640 0.015935 0.037916
0.024157 0.023306 -0.051300
-0.033112 -0.000700 -0.011716
-0.017098 0.030213 -0.007134
0.026008 -0.019266 0.014210
0.032441 -0.004364 0.005149
-0.008291 -0.002335 0.036103
-0.014053 -0.028115 -0.011638
0.011149 0.025704 0.036700
-0.015214 -0.027711 0.007129
0.030061 -0.012626 0.017526
-0.026514 0.021241 0.041741
0.010964 -0.029055 0.035050
0.011125 -0.024360 -0.056283
-0.032736 0.007295 0.023711
-0.032576 0.008927 -0.053560
0.016163 0.016835 0.038329
-0.011809 0.032830 0.029142
-0.010611 0.032553 0.041913
-0.007736 0.030640 0.037201
0.026094 -0.020119 -0.014488
0.010184 0.007454 0.038260
-0.007673 0.008774 0.037940
-0.029054 0.002830 -0.056230
0.015317 -0.026823 -0.018822
0.022908 -0.022314 0.021368
-0.012428 -0.002965 0.035948
0.004681 -0.020526 -0.055687
-0.007538 -0.003321 0.036122
0.011572 0.017675 -0.055663
-0.016532 -0.007418 -0.055766
-0.019757 0.017971 -0.056855
-0.030364 0.014957 0.007445
-0.009172 0.027685 -0.055773
-0.020719 -0.023507 0.041742
-0.031210 0.011128 0.040285
0.020427 -0.010813 -0.056294
0.012224 -0.001824 0.039140
-0.007124 -0.029523 0.011305
-0.027179 -0.016451 -0.058254
0.018452 0.027960 0.039732
0.016879 0.029716 -0.025575
-0.025262 0.003831 0.037321
0.014118 0.031327 -0.013385
0.022609 0.025224 0.026996
0.030913 0.011675 0.022293
0.032869 0.000270 0.039060
-0.005179 -0.030143 -0.058366
-0.012194 0.032650 0.025157
0.000870 -0.029929 -0.044055
0.023061 0.024085 0.040313
0.023158 -0.021226 -0.054863
-0.026385 0.021788 -0.026244
-0.003156 0.013389 0.036365
0.031104 0.010682 0.006311
0.000186 -0.028586 -0.019000
0.008999 -0.029993 0.036588
0.004229 -0.023809 -0.056436
-0.011624 -0.013137 -0.055752
-0.018539 -0.019838 0.037104
0.023945 0.012619 0.037534
-0.005859 0.034640 0.006469
-0.000536 0.020842 -0.055888
-0.016080 -0.027187 0.039303
0.019024 -0.008883 -0.054886
-0.006808 -0.011284 0.036585
0.001829 -0.029191 -0.039322
-0.015157 -0.028031 -0.025317
0.032816 0.000445 -0.055709
0.005262 -0.030201 0.038714
0.019124 -0.025272 -0.049579
-0.032324 0.009727 -0.045881
-0.008297 0.033911 -0.029636
-0.013676 0.028315 0.037180
0.032719 -0.000079 0.014007
-0.017889 0.003447 -0.055278
0.030546 -0.011763 0.003181
0.000595 0.009228 -0.055142
-0.016286 -0.003086 0.036626
-0.011824 0.028117 0.037066
-0.004833 -0.028569 -0.015221
-0.028056 -0.018124 -0.017920
-0.028791 0.018174 -0.055816
0.032722 -0.000777 0.032462
0.015327 -0.009409 -0.055533
-0.008089 0.033539 -0.056563
-0.014690 0.031253 -0.054817
0.012945 -0.014815 -0.054850
0.008321 -0.011713 0.036419
0.006007 -0.024239 0.036733
0.032480 0.003144 -0.040008
0.022696 0.019332 -0.057461
0.021187 0.026490 -0.029631
-0.006447 -0.005292 0.036788
-0.033097 -0.000362 -0.010049
0.021882 -0.022849 0.036468
-0.008274 -0.022421 0.037100
-0.022765 0.001606 -0.055284
0.022300 0.025459 -0.033326
-0.032150 -0.007731 -0.049677
-0.033116 -0.003567 0.031653
0.008107 -0.017107 -0.055276
-0.019530 -0.017199 0.036925
0.019543 -0.023610 0.037866
-0.023185 0.025168 0.038988
0.007413 -0.029967 0.030774
0.003625 0.022497 0.036838
0.028268 0.006589 0.037524
0.032446 -0.001486 -0.018014
-0.007139 -0.018852 -0.055137
-0.015612 -0.012954 -0.055352
-0.031501 0.011861 0.005713
0.029771 0.014605 0.038249
-0.023226 -0.022959 0.017712
0.019988 0.013696 0.036949
0.005990 -0.005739 0.037052
0.008586 -0.029723 0.027570
0.010766 -0.029188 0.035346
-0.012505 -0.028993 -0.041241
0.027627 -0.017271 0.009241
0.002423 -0.018733 -0.055389
-0.012619 -0.001931 -0.055228
0.001178 0.022550 -0.055403
-0.026193 -0.017731 -0.058191
0.021171 -0.023967 0.008348
-0.014574 0.031289 -0.054438
0.029763 0.014129 -0.009480
0.026215 -0.018896 0.014047
-0.026250 -0.020347 0.005677
-0.025561 0.001815 0.037194
-0.016570 -0.023691 0.037155
0.020748 0.027297 0.017061
0.004730 0.017893 -0.055197
0.014943 -0.021081 0.036797
-0.030759 0.014245 -0.055116
0.015886 0.030467 0.005414
-0.012814 -0.017481 -0.055736
0.002326 -0.009101 0.038193
0.002966 0.034860 0.013730
-0.032791 0.007568 -0.044679
-0.020651 0.027644 0.020803
-0.018334 -0.023288 -0.059066
0.004835 -0.017122 -0.055722
-0.015268 -0.027588 0.013826
-0.012849 -0.014011 -0.055827
0.014709 -0.027444 -0.048908
-0.032185 -0.007875 -0.009506
0.028528 0.006314 0.037106
0.028731 -0.015038 0.023064
0.005792 -0.030810 0.038455
-0.015112 0.031263 -0.031496
-0.017867 -0.026986 -0.014035
-0.011061 -0.029360 0.034873
0.008834 -0.028154 -0.039425
0.022144 -0.022532 0.034380
-0.021193 0.027005 0.008971
-0.012751 0.026437 -0.055749
0.031958 -0.007277 0.005947
0.031678 -0.007079 -0.032545
-0.030625 0.014321 -0.009358
0.008492 0.033750 0.029952
-0.009480 0.004750 0.037529
0.010577 0.012978 0.037570
-0.013296 -0.026914 -0.059047
0.032342 -0.003680 -0.006676
0.006022 -0.030907 0.037602
-0.012773 -0.029335 0.042150
0.027416 0.018847 -0.023136
0.005271 0.034399 -0.047211
-0.023635 -0.023503 -0.009363
-0.028698 0.012859 -0.058861
0.031234 -0.008810 -0.026256
-0.008405 -0.030121 0.034667
-0.021730 -0.024047 0.018852
0.020641 -0.024294 -0.049843
0.005802 -0.027993 -0.022586
-0.001849 -0.030561 0.017464
-0.011174 0.021034 0.036994
0.023425 -0.006595 0.036889
-0.001329 0.021636 0.036845
-0.011446 -0.028855 -0.026592
0.009742 0.003234 -0.055009
-0.023931 -0.017132 0.037201
0.018214 0.023031 -0.056157
-0.025691 0.022975 -0.046716
0.010393 0.033104 0.034176
-0.033002 0.003309 -0.009340
0.014990 0.022694 0.036728
0.009328 -0.001688 0.036570
0.012285 0.013164 -0.055039
-0.025014 -0.002085 0.037417
-0.020050 0.028045 -0.018467
0.011737 -0.007548 0.036229
-0.032252 0.005697 0.038571
0.031219 0.009678 -0.007268
0.032413 0.002102 -0.013506
-0.025102 -0.021327 -0.040979
-0.002009 -0.028166 -0.027064
0.010292 -0.002956 0.038328
0.005534 0.034539 0.013647
0.008771 -0.024898 -0.055928
-0.021147 0.009117 -0.055132
-0.020594 0.008841 -0.055285
-0.028622 -0.016813 -0.026742
-0.033182 -0.001753 -0.042967
-0.001611 0.034826 0.038065
0.013836 -0.019184 0.036916
-0.004500 0.009073 0.038300
-0.000314 0.013957 0.038561
0.031046 -0.009398 -0.028173
-0.032742 -0.006107 0.030394
0.016532 -0.026225 -0.032876
0.009541 0.024271 0.037013
-0.027027 0.004275 0.036857
-0.009249 -0.000347 0.036053
-0.023502 0.025247 0.036849
-0.012247 -0.020088 -0.056872
0.030949 0.008907 0.037124
-0.005467 -0.019377 0.037067
-0.022970 0.022159 0.037052
0.002259 -0.028710 -0.014753
0.004291 0.014272 0.039277
-0.004808 0.034552 -0.027005
0.011411 0.004915 0.038617
0.030494 0.012948 0.026586
-0.012253 0.032614 -0.009310
-0.032822 -0.005658 0.014475
-0.011780 -0.029179 0.037571
-0.024772 -0.021200 0.027295
0.011158 0.032789 0.024730
-0.003701 0.010887 0.038401
0.019999 -0.024614 0.018739
0.018701 0.007869 0.037359
-0.021304 -0.007270 0.037243
0.031548 -0.008430 -0.006314
0.019921 -0.009157 -0.055601
0.017255 0.001954 -0.055089
0.026830 -0.017962 0.022567
0.002651 0.024130 -0.055570
0.027016 -0.004647 -0.055248
-0.006205 -0.006368 0.036579
-0.017064 -0.002969 0.036544
0.026295 0.020859 0.019462
0.027022 0.019547 -0.018827
-0.021953 0.008221 -0.055324
-0.031376 0.012156 0.023066
-0.013253 -0.028588 -0.027449
-0.032769 0.003214 -0.058094
-0.029756 0.006959 -0.058326
-0.003463 -0.029818 0.008824
-0.021115 -0.025292 -0.014249
-0.003872 0.020303 0.036688
-0.006943 0.034186 -0.030366
0.007872 -0.029409 0.010918
0.013343 0.001384 0.038754
0.000460 0.007012 0.036077
0.032104 0.005601 -0.027600
0.012888 0.032169 0.013397
0.032409 -0.002694 -0.012793
0.007591 -0.030221 0.038685
-0.008601 -0.028519 -0.058988
-0.003996 0.012119 0.038309
0.001910 0.031167 -0.058037
-0.028978 0.019705 0.041694
0.016532 -0.004768 0.036552
0.003662 0.034870 -0.001631
-0.008347 -0.030178 0.036488
0.020483 -0.011384 -0.056378
0.009872 -0.028277 -0.013949
-0.017703 0.026202 -0.058435
-0.025123 -0.006325 0.036835
-0.032175 0.009848 0.027570
0.032063 0.006072 -0.030730
-0.017532 -0.007286 -0.055939
-0.018683 0.029026 -0.011637
-0.029785 -0.015148 0.012706
0.006031 0.015552 0.036964
-0.011791 0.012567 0.036556
0.002035 0.034869 -0.032117
-0.024819 -0.022369 -0.007155
0.025668 0.010786 -0.055502
0.031953 -0.005551 -0.050362
0.016054 -0.018237 0.036715
-0.016430 0.019809 0.037230
-0.008939 0.000859 0.036110
-0.017763 0.029711 -0.048596
-0.011668 -0.028879 -0.027969
0.021081 0.027765 0.041436
0.008153 -0.029484 0.022281
-0.006467 0.016204 0.036475
-0.022046 -0.024099 0.006895
0.015314 -0.026957 -0.014623
0.004854 -0.006018 0.036889
0.031395 0.009559 -0.038021
0.031014 0.012912 0.039146
-0.015864 0.030944 0.019802
-0.021505 -0.023559 0.037755
-0.009151 -0.028874 -0.020028
0.025750 0.013164 0.038117
0.021146 -0.023311 0.035014
-0.002444 0.035073 0.002795
-0.011867 0.008850 -0.055250
0.004707 -0.008888 0.038321
-0.029047 0.017364 0.008877
0.018278 -0.025662 0.018342
0.015583 0.030489 -0.038922
0.017908 0.002458 0.037155
0.000322 -0.031394 0.034577
0.032735 -0.000533 0.026114
-0.021021 0.027229 0.008619
-0.008845 -0.028780 -0.028529
0.005004 0.034638 0.005167
-0.031215 -0.009011 -0.056681
0.010627 0.018046 0.036859
0.001180 -0.028139 -0.022020
0.031758 0.008285 0.015577
0.027883 -0.016561 -0.042686
0.020908 -0.024127 0.008189
0.024960 -0.020935 -0.004740
-0.003890 -0.030491 -0.056931
-0.026187 0.022070 0.001574
0.010328 -0.030388 0.041127
-0.003385 -0.009264 0.037506
0.022414 0.025242 -0.025979
0.032396 -0.003497 -0.055223
-0.011500 -0.028713 -0.020052
-0.033073 0.001390 -0.005265
-0.026656 0.021430 -0.025557
0.021782 0.025886 -0.025565
0.006570 -0.027295 -0.033069
0.015824 -0.016827 0.036983
0.008651 -0.029484 0.014471
0.023572 0.024252 0.041986
0.026050 -0.019195 0.014371
-0.016440 0.030593 0.032737
0.023360 -0.021760 0.024851
0.003331 -0.002766 0.036017
-0.032864 0.005914 -0.024154
-0.032842 0.004553 0.038302
-0.027977 -0.017862 -0.027907
0.007296 -0.015105 0.036556
0.032507 -0.003031 -0.054589
0.018467 0.028828 0.013203
-0.016908 0.030338 0.001878
-0.001370 -0.027931 -0.024897
0.001930 -0.010237 0.036633
0.021482 -0.000155 0.038706
-0.031278 -0.011442 0.027251
0.011978 -0.028071 -0.006817
-0.033167 0.003023 -0.026121
0.016087 -0.026485 -0.023664
-0.013337 0.002644 0.035968
0.028861 -0.014845 0.017620
0.008300 -0.030930 0.041408
-0.017192 -0.007180 0.036903
0.030832 0.010957 -0.056015
0.002816 0.019569 -0.055496
-0.016323 -0.015559 0.037319
-0.012268 -0.028815 0.030018
0.032020 -0.004466 0.041741
-0.018357 0.013366 -0.055290
-0.002823 0.034946 0.026697
-0.023211 -0.023773 -0.007899
-0.017477 -0.026833 0.006529
0.007773 -0.005346 0.037062
0.011639 0.025057 0.036640
-0.018901 0.028964 0.001756
0.013478 -0.005708 0.036346
-0.001128 0.001065 0.036179
0.013179 0.031857 0.030270
-0.013939 0.022838 -0.056916
0.030977 -0.010690 0.003497
0.032249 0.007041 0.039254
0.018987 0.014285 0.037130
-0.021271 0.020143 -0.055756
-0.025023 0.002369 -0.056868
0.010865 0.032803 -0.032043
-0.000717 0.002290 0.036176
-0.021609 -0.003461 0.037218
-0.022277 0.026132 -0.021133
0.017487 -0.003992 0.037188
0.013453 0.002158 -0.054961
-0.029147 0.017516 0.032354
0.015368 -0.027411 0.030094
-0.000827 0.004484 0.036153
0.023037 0.017011 0.037610
-0.026073 0.022153 0.030687
0.028443 0.003706 -0.056356
0.016624 -0.014956 0.036914
-0.008715 -0.029982 -0.054896
-0.002125 -0.021967 -0.056430
0.031642 0.005150 -0.057734
0.031606 -0.007309 -0.015454
0.001436 0.024010 0.036910
0.008953 0.018075 -0.055797
0.012927 -0.028255 0.014841
0.008563 -0.001443 0.036429
0.032503 0.001848 -0.034894
0.016111 -0.007042 0.036572
-0.010254 0.032740 0.041943
0.025435 -0.017815 0.039697
-0.031289 0.012438 0.008221
-0.011219 -0.019082 0.037240
-0.017922 -0.026112 0.034820
-0.024784 0.021855 0.036518
-0.032705 -0.006221 0.002479
-0.021430 0.000633 -0.055402
0.003348 0.029777 -0.056136
-0.010093 0.027801 -0.055768
0.032590 0.003158 0.011164
-0.026453 -0.019854 -0.035069
0.000914 0.016844 0.036508
0.015710 0.030610 0.011164
0.027994 -0.016281 0.022074
0.020722 -0.000439 0.038748
0.013089 0.014192 -0.055554
0.030887 -0.010769 0.007335
0.012662 -0.016380 0.036874
-0.003579 -0.017138 0.036886
-0.018352 0.029409 0.008340
0.018699 -0.021100 -0.058790
0.022684 -0.022615 0.015315
0.028629 0.017158 0.011969
-0.000172 0.006487 0.036095
-0.003493 0.012247 0.038349
-0.029454 -0.015083 0.040374
-0.028210 0.019144 0.026196
-0.015030 0.014167 0.037003
-0.021729 -0.011496 0.037278
-0.008411 0.018125 0.036536
-0.009992 -0.028845 -0.026446
0.022134 -0.021712 0.040029
-0.033181 -0.001404 -0.036211
-0.023788 -0.023441 -0.012453
-0.031404 0.011983 0.018076
-0.017530 0.023560 -0.055784
-0.020643 -0.024635 0.023145
0.016505 -0.026641 -0.038477
-0.008203 0.016942 0.036532
0.032089 -0.004957 -0.010337
0.003700 -0.025982 0.036873
0.014173 0.031302 -0.045401
0.023891 0.022891 0.037854
-0.004434 0.016765 0.036527
0.023587 -0.021483 0.027256
-0.011027 -0.029279 0.032039
-0.021702 -0.023302 -0.054421
-0.019797 -0.024962 0.036957
-0.002790 0.024981 0.036946
0.009921 -0.029159 0.015693
0.015937 0.030457 0.023163
-0.003308 0.034986 0.037000
0.003258 -0.030617 0.017184
0.029049 -0.014489 -0.033403
-0.029834 -0.014828 -0.014336
0.000539 0.011873 0.038430
0.029819 -0.013701 -0.013829
0.013265 -0.005543 -0.054909
0.023291 -0.022262 0.011092
0.022099 -0.022840 0.038189
0.016876 0.029688 -0.020624
0.032742 0.000015 0.023171
-0.027745 -0.018180 0.018293
0.007871 -0.029466 0.015863
0.017977 0.010499 0.037234
-0.005871 0.024172 0.036971
-0.030767 0.014289 0.033265
-0.003906 0.011451 0.038390
0.023141 -0.015744 0.036968
0.000278 -0.021383 -0.055925
-0.005066 0.012196 0.037282
-0.002285 -0.003680 0.036497
0.023910 -0.000886 0.036635
0.028399 0.017565 0.028256
0.014296 0.014693 -0.055679
-0.027120 -0.004291 -0.055822
0.024968 -0.001964 -0.055958
0.020468 -0.000203 0.038728
0.018756 0.024989 0.036834
0.030725 -0.011325 -0.002984
-0.007872 -0.008832 0.036287
-0.031456 -0.010050 -0.046046
0.025459 -0.006320 -0.054983
0.003754 -0.026974 -0.056933
-0.006389 -0.030069 0.039541
0.032364 0.004858 -0.044158
-0.031395 0.012737 0.034624
0.006262 -0.027797 0.037015
0.025889 -0.019087 0.017243
0.022593 -0.022682 0.014584
0.023763 -0.018141 -0.058864
0.024649 0.023136 0.034778
0.002338 0.034814 -0.022548
0.027830 -0.017185 -0.028724
0.010788 -0.028629 0.000764
-0.033293 -0.001471 -0.053584
0.016998 0.018627 -0.056697
-0.030005 0.015045 0.041701
0.030315 -0.012403 -0.013251
0.022142 -0.022224 0.035620
0.025979 0.021565 0.037269
0.008688 -0.010454 0.036446
-0.027725 -0.010995 0.037244
-0.018329 -0.012773 -0.055844
0.022037 0.025557 -0.048149
0.010477 -0.029436 0.030076
0.029606 0.015791 0.028480
0.028808 -0.014731 0.030147
0.024989 -0.020689 -0.044300
-0.025623 -0.008679 -0.055821
-0.030033 -0.014320 -0.015314
0.002822 -0.026726 -0.056272
0.032324 -0.003304 -0.021233
0.018873 -0.025548 -0.002397
-0.012312 0.022979 -0.056856
-0.008561 -0.030013 -0.050919
0.007899 0.012102 0.039023
-0.006424 0.034457 0.020082
0.014048 -0.013352 -0.054957
-0.014436 -0.026505 -0.059014
0.028084 -0.016649 0.006990
-0.008867 -0.029498 0.017164
0.010491 0.025610 0.036629
0.002254 -0.029096 -0.039145
0.019384 -0.025552 -0.032985
-0.029858 0.016006 -0.056014
-0.028835 0.007705 -0.056728
-0.019783 0.012936 0.037161
0.027844 -0.016629 -0.043570
-0.033125 0.001502 -0.011274
0.017812 -0.014927 0.036945
0.027360 0.009444 -0.056681
-0.026466 0.021698 -0.001502
-0.023278 0.025258 0.026706
-0.032646 -0.006893 0.018872
-0.033185 0.001854 0.011834
0.003433 -0.001242 0.036132
-0.010682 0.013799 0.036589
-0.006911 -0.003902 0.036642
0.006834 -0.022723 0.036910
0.023583 -0.022303 -0.000690
-0.029929 0.015957 -0.018352
-0.029121 0.016319 -0.058474
-0.033051 -0.002106 -0.001566
0.013974 -0.028091 0.029853
0.031379 0.009761 -0.047614
-0.004947 -0.008039 0.037524
-0.007750 -0.030224 -0.052336
-0.028990 0.017888 -0.033030
0.016466 -0.002965 0.038976
0.011297 0.018695 0.036861
-0.014129 0.031677 -0.035437
-0.004601 -0.001969 0.038359
0.007779 0.027536 -0.055846
-0.026321 0.021950 0.007481
0.005653 -0.003998 0.036155
-0.030896 0.013835 0.028560
-0.025304 -0.010812 -0.055757
-0.022540 -0.023405 0.016928
0.032289 0.005830 -0.054173
0.032387 0.001077 -0.006570
0.032050 -0.005357 -0.026128
-0.011113 -0.015677 0.037115
0.017187 -0.025679 0.039303
-0.024748 0.014469 0.036955
-0.013404 -0.028595 -0.027513
-0.032374 -0.007849 0.008619
0.016230 0.024128 -0.055861
0.028077 0.017724 -0.015895
0.000548 0.035074 -0.015249
0.031262 0.008975 -0.056757
-0.033197 0.003142 -0.033013
-0.005957 -0.030490 -0.051939
0.033228 0.001214 0.041575
-0.004479 -0.028367 -0.025636
-0.002256 -0.029493 0.002110
-0.015954 -0.003374 -0.055225
0.005072 -0.005222 0.036380
-0.018243 -0.020103 -0.055881
0.009150 -0.011604 -0.054968
-0.021907 0.026096 0.039173
0.015624 -0.011882 -0.054843
0.014875 0.016329 -0.055085
-0.005538 0.031700 0.036875
0.031094 -0.010290 -0.008235
-0.029577 -0.006417 0.037108
-0.031888 0.011015 0.030205
0.031982 -0.006754 0.010637
-0.015410 -0.003565 0.036541
0.022783 -0.022260 0.027160
-0.028228 -0.017845 0.006778
0.017673 0.002675 0.037113
-0.004388 0.034834 0.020546
-0.026433 0.022095 -0.051955
0.005650 0.017809 -0.055234
-0.023552 0.025078 0.003366
-0.021671 0.013755 0.037368
0.010654 0.033033 0.011958
0.030403 0.012811 0.010126
0.017454 0.029424 0.034612
-0.001719 -0.029395 0.000172
-0.016511 0.030489 -0.028875
-0.009871 0.021498 0.036994
-0.000534 -0.030770 0.020587
-0.006593 -0.028861 -0.008128
-0.005306 0.035012 0.040500
0.017306 0.008098 -0.055583
0.006054 -0.010015 0.036493
-0.015233 -0.021356 -0.055692
0.004256 -0.029468 0.002141
-0.032476 0.009060 0.033030
0.022693 0.024125 -0.057823
0.013449 -0.027914 0.001041
-0.009626 -0.028930 -0.029048
-0.022952 0.023412 0.036447
0.010554 0.033190 -0.001211
-0.011101 0.020435 0.036991
-0.029516 0.002436 -0.056853
0.010904 -0.006128 -0.054967
0.032411 0.001353 -0.009499
-0.025416 0.023224 -0.050365
0.032429 0.001020 -0.003358
-0.022267 -0.023493 0.023533
0.028774 -0.015210 0.005553
-0.007747 -0.029881 -0.045444
-0.022383 -0.023914 -0.042618
0.010063 0.027537 -0.055895
-0.022179 -0.024662 -0.025032
0.010823 -0.006974 0.038445
-0.010029 -0.029150 0.039566
0.000171 -0.031285 0.033978
0.001134 -0.030214 0.010647
0.020049 -0.005966 -0.054703
-0.033294 -0.001834 0.030471
-0.032722 0.007899 -0.047094
-0.009606 0.006121 0.037532
0.002163 0.024190 -0.055568
0.030877 -0.010036 -0.025748
0.016482 0.005479 0.037058
-0.028783 0.008526 -0.057100
0.032703 -0.002191 0.017858
0.032680 -0.000279 -0.033639
0.021996 -0.023610 -0.000967
0.028834 -0.015732 -0.006241
-0.028517 -0.017082 0.018845
0.011658 -0.028983 0.041509
0.006108 0.021931 0.036808
-0.029667 -0.015269 -0.012261
0.025001 -0.007198 0.036769
-0.029875 0.016052 -0.015580
-0.003340 -0.030735 0.023871
0.027374 0.012769 -0.058800
0.032591 -0.001522 0.006960
0.001528 0.023890 -0.055320
-0.003157 -0.008952 0.037785
0.032496 -0.003762 0.013118
0.018331 -0.001568 -0.055481
0.032294 0.005233 0.036057
-0.030023 0.016152 -0.053884
-0.014698 -0.022488 0.037063
0.009952 -0.028141 -0.040338
-0.031703 -0.010604 0.005836
-0.033093 0.005010 0.018503
-0.006886 0.025672 -0.056918
0.008685 -0.028780 -0.004214
-0.011906 -0.019953 0.037353
0.022667 -0.023012 0.001031
-0.032859 0.007444 -0.052811
-0.033123 0.001821 -0.012528
-0.033270 0.000527 0.017215
-0.023335 0.025237 -0.029863
0.017379 0.029484 -0.036614
0.013492 -0.006388 0.036263
-0.025423 -0.006888 -0.056324
-0.031173 0.011129 0.039535
0.022053 0.013381 0.036921
-0.020968 -0.024856 -0.045832
-0.023977 0.024273 -0.008770
0.032064 -0.005958 -0.002232
0.026994 -0.015636 0.040133
-0.007301 0.020822 0.036871
-0.012002 0.018005 0.036935
0.016538 -0.026404 -0.036198
0.027707 0.001982 -0.055267
0.006446 0.034059 -0.034132
-0.015576 0.031051 0.000822
0.028967 -0.015085 0.004931
-0.025317 -0.017300 0.037212
-0.001240 0.010220 0.036619
-0.019697 0.011538 -0.055202
-0.018926 0.028920 0.009257
-0.033114 -0.002206 -0.040016
0.001847 -0.029286 -0.005628
0.013566 0.031567 -0.046350
-0.023733 0.024052 0.038912
-0.019806 -0.019790 -0.056769
0.015600 0.030627 0.009574
-0.028618 -0.017437 -0.001660
-0.011711 -0.017114 -0.055169
0.003469 -0.030384 -0.049696
0.016169 -0.027758 0.040114
0.032305 -0.003451 -0.022022
0.024447 0.016960 0.036830
-0.005471 0.034055 -0.054346
-0.029124 -0.016327 0.011257
-0.006838 0.034310 0.009069
0.032166 -0.005709 0.033184
0.031813 0.007130 -0.036033
0.020797 0.027001 0.033610
0.000705 -0.005604 0.037020
0.012159 0.008569 0.037868
0.015162 0.030477 -0.054563
-0.000277 -0.005187 0.036092
-0.023009 -0.013504 0.036971
-0.022781 0.025996 -0.044014
-0.009289 -0.029847 -0.049645
0.032597 0.002292 -0.051264
0.028993 -0.014974 -0.025206
-0.026579 0.021746 -0.045533
-0.033121 0.001758 -0.011621
0.004494 0.015744 0.036440
0.024380 0.015672 0.037903
-0.012893 -0.028347 0.016705
-0.024745 -0.022516 -0.016694
-0.021106 -0.024358 -0.053269
0.022382 -0.023310 -0.005661
0.026983 0.020029 0.015785
-0.029038 0.016971 0.040708
-0.003877 0.020660 0.036809
0.025061 0.022220 -0.039347
-0.027649 0.020216 0.036885
-0.033083 0.005822 0.036262
-0.005953 0.002657 0.038353
-0.033340 0.001705 -0.047253
-0.014952 0.031298 -0.038516
-0.000598 -0.030088 0.009102
0.009255 -0.030493 0.039896
-0.026325 -0.015362 0.037117
-0.012122 -0.011153 -0.055305
0.009435 -0.026809 -0.032320
-0.013061 0.022298 0.037174
0.026447 0.020467 -0.020382
-0.014302 -0.013832 0.037141
0.029772 0.014170 0.008691
-0.015532 0.013185 0.036906
0.017325 -0.025206 -0.057563
-0.033268 -0.003184 0.022346
0.011776 0.017661 0.036909
-0.013272 0.032292 0.012310
0.024791 -0.020665 0.014080
-0.018874 0.014954 -0.055537
-0.031032 -0.011501 0.038401
-0.006832 0.030101 0.037085
0.006873 -0.013847 0.036435
0.021394 -0.000844 -0.054728
-0.018341 0.018770 0.037279
0.028860 -0.014561 0.039496
0.011177 -0.026987 -0.034795
-0.032505 -0.006597 -0.023737
0.001384 -0.025822 0.036855
0.020199 0.006508 -0.054801
-0.029949 -0.014737 -0.010789
-0.003851 0.027308 0.036718
0.013673 0.031712 -0.000943
-0.012779 0.024528 0.036707
-0.032884 0.010563 0.041606
0.019718 0.027820 -0.030617
-0.026231 -0.020673 -0.022328
0.019829 0.027559 -0.026442
-0.028787 0.018376 -0.040853
0.021910 0.025883 0.013858
-0.005205 -0.031750 0.040773
0.026664 0.020350 0.023576
-0.021622 -0.024128 -0.051892
0.009753 0.033106 -0.037898
-0.031855 0.009414 -0.057753
-0.017504 -0.008893 -0.055845
0.000046 0.035158 0.005062
-0.009770 0.030717 0.036841
0.027328 -0.016975 0.029900
-0.032159 0.009157 -0.007825
-0.011062 -0.024066 0.036975
0.029192 0.015321 -0.026175
0.000282 -0.024535 0.036631
0.010081 0.033038 -0.036055
0.013447 -0.027980 0.005021
0.032612 -0.001769 -0.050821
-0.005182 -0.029858 0.037361
0.029794 0.014313 0.007218
-0.025544 0.003755 -0.056894
0.022583 0.026529 0.040964
0.029513 -0.013385 0.036816
0.007238 0.032689 0.037487
-0.010051 0.033631 0.042066
0.022641 -0.021602 -0.056330
0.021362 0.026342 0.001532
-0.029453 -0.015969 0.003553
0.026838 -0.010092 -0.058425
-0.026424 0.012429 -0.055820
-0.013811 -0.028621 -0.044709
0.006104 -0.008217 0.038698
0.021836 0.025833 0.009486
0.031542 -0.008021 0.017254
-0.008066 -0.004070 0.036071
-0.027762 -0.018060 0.016645
-0.032416 0.009253 0.029680
-0.008106 -0.014415 0.036544
0.026668 -0.017739 0.032194
0.006074 -0.014852 0.036409
0.028486 0.016837 -0.023836
-0.024860 -0.019720 0.039669
-0.010474 -0.028938 -0.029008
-0.013138 -0.028811 -0.052099
0.010445 0.032903 -0.035400
-0.026942 0.002064 0.036859
0.004892 -0.030224 0.015539
-0.026107 -0.020092 0.022105
0.009373 -0.014400 -0.055625
0.013937 -0.004673 0.039113
-0.022979 0.025767 -0.047257
-0.030416 -0.013971 0.000582
-0.032516 0.008610 -0.038490
-0.018164 -0.026573 -0.007529
0.010602 0.027095 0.036862
0.009318 0.008749 0.036346
0.015412 0.020058 -0.056757
0.000415 -0.029948 -0.043514
0.023500 -0.022183 0.003100
-0.032788 -0.006161 0.027790
0.019003 -0.003195 -0.055303
0.018454 0.028868 0.031129
0.032489 -0.002064 -0.002577
0.032530 0.000074 -0.000188
0.001666 -0.028898 -0.010163
0.011906 0.019632 -0.055039
0.000452 -0.028511 -0.017716
-0.025001 -0.022226 -0.017736
-0.028896 -0.016307 -0.026600
0.007877 -0.016910 0.036905
0.007006 -0.023631 0.036675
-0.020470 0.004031 0.037111
0.006276 0.031989 0.036386
-0.003455 0.034923 0.001491
0.004181 -0.027752 -0.033162
0.027281 0.012856 0.037088
0.031493 -0.008795 0.010643
-0.010347 0.018768 0.036989
0.027943 -0.017284 -0.004787
0.009421 -0.029871 0.037544
0.012873 -0.028186 -0.051275
0.032546 -0.002762 0.011535
-0.021474 0.004537 -0.055354
0.005160 0.024658 0.036916
-0.009631 0.026159 0.036695
-0.016665 -0.027315 -0.049462
-0.007923 0.033195 0.039240
-0.003026 0.028043 0.036653
-0.004315 -0.028808 -0.007982
0.028125 -0.001170 -0.057007
-0.016297 -0.001124 0.036627
-0.007258 -0.008396 0.036114
-0.002251 -0.028686 -0.009494
-0.032654 0.006268 0.006334
-0.032488 0.008728 0.029759
-0.031477 0.012176 -0.001219
-0.012839 -0.028753 0.037033
0.009021 0.012731 0.037918
-0.025107 0.022718 0.040627
-0.006075 -0.028836 -0.009614
-0.026991 -0.019882 -0.010455
0.015034 -0.023631 -0.058708
-0.004022 0.014896 0.036511
-0.011679 0.000190 0.035972
0.002273 0.001651 0.036159
-0.006127 -0.029713 -0.039056
-0.033328 0.001051 0.020275
0.001308 0.035089 -0.008275
-0.031513 -0.011037 0.011615
-0.013817 0.008473 0.036593
0.012643 -0.026324 0.036920
0.031496 -0.008556 0.024276
0.005714 -0.027990 -0.058948
0.018152 0.029060 0.009513
-0.021757 -0.023631 0.032705
0.024326 0.018578 -0.058926
0.009346 -0.030354 0.041808
0.001817 0.035091 -0.003466
-0.006949 -0.028773 -0.059012
0.000953 0.021893 0.036842
0.031275 -0.009835 -0.001946
-0.022572 -0.022662 0.037780
0.018004 -0.012442 0.036869
0.031453 -0.007645 -0.043943
0.021266 -0.024061 0.001733
-0.002075 -0.028140 -0.026674
0.003441 0.005898 0.036102
-0.031141 -0.011525 0.040290
-0.011509 -0.028742 -0.020812
-0.028638 -0.016530 0.025869
0.008073 0.033834 0.020110
0.031405 -0.007112 -0.056033
0.015239 0.021986 0.036838
-0.028099 -0.015788 0.039354
-0.010755 -0.029508 -0.048174
-0.028216 -0.014493 0.040483
0.009997 -0.023261 -0.055690
-0.032543 0.007448 -0.056091
-0.006148 -0.024058 0.036710
-0.022903 -0.022586 0.033325
0.032211 -0.004264 -0.028364
-0.032969 0.003781 -0.008602
0.028907 0.016052 -0.050187
0.014480 0.012459 0.037242
-0.033102 -0.002698 -0.049855
-0.033184 0.002251 0.016324
0.016156 0.009468 0.037090
-0.004263 0.034922 0.020710
-0.006113 0.022428 0.036929
0.019434 0.011113 0.037168
-0.033002 0.005638 -0.055196
0.001243 0.023248 -0.055163
-0.002824 0.025579 0.037023
-0.027417 -0.018533 0.016788
-0.006795 -0.009274 0.036353
0.029197 -0.000089 0.036861
-0.016415 -0.027033 0.034802
0.005024 -0.006051 0.037748
-0.015361 0.012719 0.036744
0.009606 -0.012202 -0.055039
-0.018966 -0.025326 -0.054963
0.032634 0.000352 -0.043993
-0.007280 -0.023966 0.036796
-0.012343 -0.026302 0.037155
-0.010703 0.033253 0.026448
-0.024343 0.002760 -0.056652
0.031357 -0.008928 0.022302
0.013569 0.003368 -0.054975
0.011279 0.002226 0.036454
-0.024575 0.024164 0.037243
-0.018536 0.029163 0.007200
-0.019767 0.028421 0.030228
-0.010751 -0.028887 0.009243
0.016037 -0.004915 0.036646
-0.001347 0.034018 -0.058101
0.028814 -0.014684 0.032061
-0.023035 0.025627 0.022093
-0.002332 -0.028461 -0.016184
0.018553 0.004148 -0.055529
0.000364 -0.015183 0.036510
-0.014267 -0.028056 -0.055722
0.000286 0.035133 0.004086
0.020997 0.006127 -0.054790
0.002877 -0.011904 0.036503
0.013502 0.031633 -0.028693
-0.030510 0.002278 -0.058698
0.015856 -0.026865 -0.008627
0.019564 -0.008096 0.036842
0.031889 -0.006022 -0.016323
-0.033240 -0.003357 0.021096
-0.018231 -0.021300 0.037212
-0.017621 -0.027124 -0.021607
0.015322 -0.027409 0.027621
0.022915 -0.022609 -0.048504
-0.015883 0.030777 -0.049502
0.019625 -0.018001 0.036841
0.010928 -0.006799 0.038738
-0.020420 0.016447 -0.056897
0.001261 -0.030240 -0.047322
-0.032240 0.009006 0.008236
-0.017490 -0.026809 0.007107
-0.030833 0.013897 0.027095
-0.018337 0.005756 -0.055705
0.014248 -0.027356 -0.010964
0.031433 -0.009020 -0.003982
0.027613 -0.005990 -0.056430
-0.031488 -0.010925 0.020569
-0.015756 -0.027315 0.024993
0.020954 0.013070 0.036789
0.030514 -0.010674 -0.044353
-0.015993 0.030367 -0.056804
-0.005286 0.026805 0.036866
0.008981 -0.027274 -0.025748
-0.002562 0.034825 0.038021
-0.015174 -0.010633 0.037004
0.025356 -0.020403 -0.042042
-0.006706 -0.029981 0.018476
-0.032953 0.006669 -0.050999
-0.020581 -0.024941 0.010881
-0.012858 -0.028685 -0.027492
-0.005022 -0.030332 -0.048831
-0.033072 0.002057 -0.009493
-0.027849 -0.012879 -0.059064
0.001534 -0.029862 0.005071
-0.015389 -0.017832 0.037381
-0.029318 -0.015307 0.042063
0.029705 -0.012529 -0.051748
-0.008431 -0.027809 -0.058941
0.031652 -0.007450 -0.031794
-0.022552 0.001014 0.037226
0.023888 0.023807 0.000215
-0.018479 0.029180 -0.013830
-0.002347 0.034766 -0.038814
-0.004652 -0.009865 0.036420
-0.030859 -0.012492 -0.010772
-0.003553 0.029762 -0.056029
-0.013522 -0.028694 -0.045327
-0.003537 -0.014143 -0.055186
0.005818 0.034442 0.016879
-0.030919 0.013515 0.005165
-0.005823 -0.004524 0.038136
0.017250 0.029597 0.007596
0.002745 0.030418 0.037027
0.002040 -0.008117 0.038322
-0.024922 0.014156 0.036957
-0.025664 0.002581 0.037188
-0.026784 0.012143 -0.055948
0.032450 0.002770 0.002988
0.011681 -0.026536 -0.031722
0.017883 0.012355 -0.054977
0.007547 -0.023354 0.036690
-0.016196 0.019561 -0.056585
0.030215 0.008239 -0.058847
0.000275 -0.027985 -0.031206
0.003449 0.017983 0.036479
0.025986 -0.008857 0.036873
-0.026454 0.022026 -0.048867
-0.006603 -0.005441 -0.055172
0.009000 0.003059 0.036293
-0.024096 0.003189 0.037287
0.026768 -0.014242 0.036653
-0.014032 0.031727 0.025551
0.028804 -0.014304 0.035191
-0.026452 -0.019748 0.021116
0.021548 0.026097 -0.014438
-0.032644 -0.006001 -0.007276
0.020814 0.026764 -0.030238
0.009557 -0.029032 0.003469
-0.005708 -0.018689 0.037050
0.032389 -0.003937 0.034372
0.032218 -0.005453 0.022594
-0.023256 0.013398 0.036868
0.026065 -0.019368 0.010819
0.017161 -0.025408 -0.057255
-0.025980 -0.019623 0.032227
0.002935 -0.031765 0.036783
-0.029315 -0.016023 0.010229
-0.032912 0.006089 -0.029431
0.006880 0.034229 0.032625
0.031846 0.007545 -0.046845
-0.012692 0.032517 0.018120
0.001899 -0.028185 -0.021606
0.022192 0.006471 0.037089
-0.017799 0.029504 -0.008387
0.030560 -0.011279 0.025534
0.023595 -0.008733 -0.055630
-0.004490 -0.019975 0.037080
-0.012798 -0.024260 -0.056480
-0.004932 -0.009135 0.036382
0.032702 -0.000791 0.031069
-0.011724 0.032826 -0.034631
0.021090 0.004023 -0.054682
-0.033232 0.000986 0.013687
0.005245 -0.029015 0.036586
0.031717 0.007881 -0.045630
0.031383 0.010650 0.037299
-0.002069 -0.030190 -0.044275
0.030983 0.005393 -0.058536
0.022821 0.020130 0.036894
-0.014192 0.024021 -0.056431
-0.002254 -0.030103 -0.043103
0.011374 -0.027408 -0.036902
0.004917 -0.008820 0.038356
-0.033336 0.001153 -0.051984
-0.005891 0.034641 0.006158
-0.029272 -0.009244 0.036975
-0.014239 -0.028004 0.009707
-0.020658 -0.024875 -0.049947
0.013607 0.031764 0.017764
0.029433 0.014814 -0.022168
0.010569 0.031619 -0.058695
0.032554 -0.003008 0.020504
0.025321 0.022133 0.030138
0.033125 -0.001021 0.041622
-0.028551 0.018416 -0.002859
-0.003536 0.026001 -0.056921
0.002573 -0.020351 -0.055293
0.016003 0.026846 0.036968
0.011728 -0.028288 -0.046175
-0.018035 -0.015155 -0.056810
-0.022754 -0.022890 0.029642
-0.032417 -0.007897 0.025230
-0.029508 -0.015272 -0.021205
-0.005765 0.034557 -0.009143
-0.031292 0.013069 -0.049130
-0.016433 -0.019459 -0.056248
-0.008036 0.029578 -0.056602
-0.001532 -0.012360 0.036714
-0.017402 -0.013936 0.037273
0.006392 0.023718 0.036879
-0.011453 -0.028872 0.016341
-0.031507 0.011809 0.020587
-0.020215 -0.024848 -0.053345
0.029329 -0.006321 -0.058817
0.030907 -0.010778 -0.005317
0.027390 0.018883 -0.052463
0.027267 0.018988 -0.041259
0.013103 -0.026463 -0.059096
-0.028105 0.019306 0.032041
-0.032904 0.004379 0.001648
-0.007020 -0.030272 0.029580
0.006061 0.034427 0.013283
0.027569 -0.015660 -0.055347
0.003348 -0.027409 -0.029222
-0.022895 0.025770 0.029212
-0.028659 -0.016025 0.040196
0.003967 -0.007609 0.038600
0.031106 -0.009724 -0.015706
-0.032839 -0.004195 -0.015870
-0.033171 -0.002281 -0.053766
0.027325 -0.006378 -0.056100
0.010368 -0.027870 -0.038898
0.013197 -0.022958 -0.055913
0.011179 0.004235 0.037857
0.032433 0.001280 -0.014168
0.008559 0.033677 0.017463
0.032446 0.003500 -0.046545
0.022583 -0.022455 0.028401
-0.004529 0.034868 0.012951
0.023615 0.016910 0.037316
-0.012014 0.004111 0.035924
-0.025064 0.011848 0.036820
-0.033222 0.000408 0.012478
-0.002903 0.034717 -0.035367
0.012977 0.031953 0.037911
-0.008925 -0.029073 0.008088
0.031014 0.011377 0.017298
-0.004530 0.003395 0.036232
0.004619 -0.029225 -0.058974
0.028300 -0.014646 0.042147
0.014630 -0.001269 0.037693
-0.012254 -0.022615 0.036890
0.010191 0.033122 -0.012384
0.032459 0.000534 -0.015190
0.003944 -0.027375 -0.026440
-0.020118 0.016752 0.037258
0.030633 0.008658 0.036933
-0.007104 -0.029556 -0.038071
0.005994 0.034415 0.030234
-0.032292 -0.007030 -0.022308
0.002388 -0.028817 -0.011966
-0.020619 0.027523 0.007689
-0.032975 -0.003579 -0.003176
0.031352 0.009147 -0.011322
-0.025965 -0.018589 0.038934
-0.013756 -0.022938 0.037037
0.019688 0.028610 0.039812
-0.025146 -0.019477 0.038817
0.026891 0.019661 -0.052275
0.000358 0.033551 0.037009
-0.017796 -0.017183 -0.056750
-0.016244 0.030615 -0.049934
0.032564 0.002071 -0.036105
-0.004566 -0.028705 -0.009890
-0.027065 -0.018558 0.042163
0.012295 -0.015248 -0.054930
-0.032941 0.006900 -0.050949
-0.007890 0.019532 -0.055950
0.021981 0.010171 0.037035
-0.002857 0.009865 0.038094
0.026975 0.019561 -0.031657
0.014382 -0.015994 0.036897
0.002327 0.001799 0.036130
0.018832 0.028506 0.034752
-0.025801 0.022852 -0.051117
0.028277 -0.008039 0.036866
-0.003860 0.031985 -0.058991
-0.031063 -0.012066 0.034228
0.001670 -0.032167 0.040777
0.028548 -0.014554 0.039031
0.004197 0.027309 0.036665
0.031836 0.008653 0.027920
0.003432 0.034578 -0.031460
0.017393 0.029504 0.008958
-0.031162 0.004353 -0.059037
0.006841 -0.008308 -0.055031
-0.024423 0.020229 0.036992
0.025681 -0.019448 0.021812
-0.031781 -0.010129 0.014044
-0.018525 -0.005391 0.037052
-0.032248 -0.008622 0.022181
-0.020286 -0.020843 0.037179
0.032460 -0.004182 0.003462
0.001414 -0.030662 -0.051442
-0.030832 -0.000569 -0.058953
-0.032392 0.007695 0.011143
-0.005571 0.001531 0.038255
-0.012078 -0.028748 0.026579
-0.013616 0.023134 0.037055
0.029412 0.002588 0.036873
0.017947 -0.026002 -0.002184
-0.025993 0.022229 0.023618
-0.004841 -0.030735 0.029911
-0.026567 -0.019226 -0.051674
0.023067 -0.022364 -0.050568
-0.006591 -0.030409 -0.055489
0.021418 0.026175 -0.003071
-0.016739 -0.027147 -0.003844
-0.008153 -0.026916 0.037183
-0.017402 -0.017704 0.036878
-0.013927 -0.013683 0.037126
-0.030607 -0.010387 -0.057708
0.032069 0.007104 -0.054009
0.028184 0.017882 0.017870
-0.003739 0.007774 0.037135
0.015782 -0.005487 0.036485
-0.031335 -0.010716 -0.019887
-0.012218 0.005332 0.036149
-0.013335 0.014066 0.036559
-0.005377 0.034510 -0.024788
-0.029621 -0.015421 0.013586
0.026324 -0.008192 0.036878
-0.029883 -0.015136 0.003281
0.012336 0.032302 0.029468
0.013899 -0.024506 -0.058845
-0.000352 0.035221 0.033789
-0.032357 -0.008133 0.021477
-0.006826 0.015614 0.036548
-0.029597 -0.014207 -0.050742
-0.032968 -0.005515 0.025245
-0.025061 -0.020916 0.026655
0.028034 -0.001590 0.036851
0.031400 0.009841 0.016530
0.019238 0.026239 0.036457
0.006497 0.028004 -0.055811
-0.025985 0.021495 0.040467
0.007156 0.034184 0.009895
-0.005697 0.034597 0.032225
0.011991 0.032518 0.006038
0.021789 0.026141 0.036939
-0.027546 0.020229 0.015148
0.010896 -0.002721 0.038936
-0.000176 0.031650 -0.058624
0.006711 0.028839 -0.055988
0.031621 0.005178 0.037165
-0.014685 0.012874 -0.055552
0.014059 -0.021308 -0.055562
-0.017072 0.029877 -0.055692
0.006663 -0.028871 -0.041684
-0.003141 -0.020611 0.037075
-0.025306 -0.020445 0.030588
-0.014210 -0.024617 -0.058306
0.031301 -0.009402 0.014548
0.020534 -0.024711 -0.018974
0.011518 0.015237 0.038980
0.026566 -0.018423 0.019262
-0.022906 -0.023025 0.024045
-0.030981 0.013307 -0.011264
-0.017695 0.004646 0.036567
0.021715 0.025970 -0.013913
-0.011394 0.005212 0.035986
0.025027 -0.005227 0.036727
-0.029365 -0.015538 -0.022152
-0.023251 -0.008720 0.037304
-0.030175 0.015395 0.007815
0.001554 -0.029469 -0.000813
-0.010156 0.003183 0.036010
0.021733 -0.013604 -0.055198
-0.033367 0.001235 0.019722
-0.030770 -0.012540 0.029893
0.025124 0.022561 0.034498
-0.000450 0.032459 0.036667
-0.009372 0.014857 0.036840
0.030170 -0.012019 -0.027654
0.022775 0.024920 -0.016357
-0.021281 0.011018 0.037195
0.007906 0.033131 -0.056702
-0.020803 0.024211 0.037048
0.018539 -0.002880 0.037745
0.027746 0.016383 -0.058669
0.012226 -0.029156 0.041599
-0.018836 -0.014133 -0.056760
0.003506 -0.029648 0.036706
-0.007548 0.020991 0.036898
0.006018 0.004313 0.036007
0.028925 0.017625 0.039255
0.032202 0.004379 -0.009092
-0.020318 -0.025646 -0.037730
0.028861 -0.014769 0.017145
-0.022548 -0.022586 0.038711
0.001645 -0.028692 -0.058930
-0.011174 0.029370 0.037175
0.024197 -0.019387 0.040639
0.007858 0.024746 -0.056761
0.007720 -0.028060 -0.059078
0.028308 0.006848 -0.057156
-0.011226 -0.028368 -0.015031
-0.031078 -0.011496 -0.021004
0.029093 -0.014299 0.025848
-0.026750 0.021376 -0.018042
0.028914 0.013995 -0.058225
-0.009691 0.033591 0.017282
0.004740 0.034492 -0.032594
0.028666 0.018922 0.040008
0.012483 0.032255 -0.002513
0.009005 0.030701 0.036692
0.031843 -0.006320 -0.018872
-0.002741 -0.013989 -0.055191
-0.024630 -0.016305 0.037187
0.000031 0.026778 0.037098
-0.017557 0.029652 -0.035775
0.003547 -0.027238 0.037032
-0.019460 -0.025066 0.042389
-0.005314 0.033721 0.038703
-0.033235 0.001276 -0.029260
-0.021647 -0.023780 0.029950
-0.020269 -0.015243 0.036898
0.000694 0.002837 0.036133
-0.023040 -0.006464 0.037353
-0.017855 -0.010596 -0.055288
0.016769 0.029749 -0.037468
0.032108 -0.004697 -0.013308
-0.027190 0.000957 -0.056147
0.007730 -0.005398 0.036932
-0.018737 0.017338 -0.056774
-0.004657 0.012400 0.036605
0.017389 -0.004332 0.036956
-0.004153 -0.001541 0.037861
-0.033159 -0.001534 0.039231
-0.011526 0.005318 -0.055230
0.019911 0.027478 -0.015803
-0.032036 0.009712 -0.011813
-0.008086 0.002214 0.038201
-0.017653 -0.012880 0.037217
-0.003789 0.021133 -0.055875
0.029774 0.013685 0.040495
0.029756 -0.013029 0.026757
-0.015381 -0.025088 -0.059047
-0.010647 -0.029096 0.017294
0.016033 -0.012835 -0.054873
0.009214 0.012329 0.037935
0.021191 0.002580 -0.054612
-0.003496 0.015253 0.036519
0.027115 0.019304 -0.028308
-0.022717 -0.001228 -0.055386
-0.009909 0.033580 0.004940
-0.018633 0.005625 -0.055860
0.001150 -0.029768 0.003732
0.031593 -0.007781 -0.048038
-0.027591 0.020041 -0.030851
0.025427 0.022045 0.016210
-0.005926 0.000453 0.038456
-0.009738 0.006591 0.037323
-0.028063 -0.014812 0.040637
0.027588 -0.017434 0.007284
0.009356 -0.012546 0.036405
0.026512 -0.019137 0.000075
-0.006827 -0.028704 -0.023898
-0.008353 -0.029359 -0.034605
-0.019387 -0.014924 0.037220
0.008997 0.025988 0.036694
-0.027116 0.020895 -0.034939
-0.002122 -0.001004 0.036156
0.014422 -0.009357 0.036482
-0.024903 0.023637 0.007577
-0.030950 0.003055 0.036926
-0.017561 -0.020276 0.037040
-0.003990 -0.001800 0.037825
0.031212 -0.009274 -0.016847
-0.019448 0.021863 -0.055781
-0.007910 -0.000673 0.035939
